1.047116 29.329170 0.000000
1.158138 25.357702 0.000000
-3.325448 29.386081 0.000000
0.068730 23.655267 0.000000
-2.341656 29.529533 0.000000
-4.753909 26.978004 0.000000
-2.046570 24.377384 0.000000
2.891219 28.138831 0.000000
3.128017 25.415304 0.000000
-3.538671 22.643151 0.000000
3.264491 21.213059 0.000000
-4.612119 22.406819 0.000000
0.710196 23.476658 0.000000
1.904883 26.753297 0.000000
4.875204 28.130546 0.000000
-4.909809 29.233661 0.000000
-4.952547 23.509430 0.000000
0.461184 28.120630 0.000000
-2.566005 22.059223 0.000000
2.951572 27.493467 0.000000
3.098880 22.748444 0.000000
4.520995 25.535470 0.000000
-2.678275 20.276200 0.000000
2.652200 20.375752 0.000000
-4.529846 27.016828 0.000000
-2.239878 24.660976 0.000000
4.809233 28.134103 0.000000
-2.363157 20.375099 0.000000
-3.182842 21.577723 0.000000
-4.668857 20.985004 0.000000
-4.495306 23.578123 0.000000
1.225540 21.880792 0.000000
3.730743 21.036466 0.000000
4.676470 28.097265 0.000000
-2.742041 29.217312 0.000000
-2.920533 23.202584 0.000000
3.723124 26.196219 0.000000
2.295072 25.486836 0.000000
2.277741 29.853798 0.000000
0.944156 23.522611 0.000000
-4.775910 27.350799 0.000000
1.771159 21.223817 0.000000
-3.074019 24.932411 0.000000
-1.659924 20.013998 0.000000
-0.352980 21.059582 0.000000
2.877849 28.405042 0.000000
-2.127123 29.940918 0.000000
-0.144917 25.950704 0.000000
2.613676 28.161034 0.000000
-4.321545 22.872340 0.000000
1.889967 20.465399 0.000000
-1.305745 26.119425 0.000000
4.489433 29.249029 0.000000
-0.541383 27.776027 0.000000
3.342591 20.378472 0.000000
-4.899601 24.173590 0.000000
-2.046604 23.973265 0.000000
1.271895 29.512416 0.000000
-2.103909 28.875203 0.000000
4.771968 29.836944 0.000000
0.461832 23.607517 0.000000
0.898938 23.921320 0.000000
-2.504180 25.557477 0.000000
-4.383399 20.207382 0.000000
-1.217937 26.708010 0.000000
-4.622675 29.964719 0.000000
0.342314 28.214013 0.000000
-1.535473 26.426452 0.000000
1.644313 29.650499 0.000000
0.763299 20.814184 0.000000
0.043045 25.987996 0.000000
4.887856 29.664205 0.000000
4.465387 23.465445 0.000000
4.516930 23.686241 0.000000
2.467952 20.763501 0.000000
-4.286091 21.001968 0.000000
-4.524159 29.198149 0.000000
-0.026010 22.340756 0.000000
-3.194045 23.381442 0.000000
-4.763192 25.450044 0.000000
-3.759294 26.037028 0.000000
-3.266651 20.083938 0.000000
4.586573 26.722970 0.000000
1.666687 29.225472 0.000000
2.759042 28.371743 0.000000
1.290331 27.073814 0.000000
-0.633247 24.708581 0.000000
1.278767 20.478950 0.000000
1.012556 25.977944 0.000000
1.719983 24.721854 0.000000
2.294822 24.030658 0.000000
-1.804363 22.307727 0.000000
2.489264 27.957905 0.000000
0.696864 29.551664 0.000000
-3.781740 29.185171 0.000000
0.263631 27.329188 0.000000
3.104469 21.154319 0.000000
1.424921 28.374261 0.000000
2.848083 20.625119 0.000000
0.860834 28.392288 0.000000
0.570483 21.791091 0.000000
2.102852 27.168306 0.000000
-0.954923 25.802542 0.000000
0.802223 26.450209 0.000000
3.523026 26.227267 0.000000
-1.753693 22.047715 0.000000
-4.705339 20.682439 0.000000
0.837018 26.645630 0.000000
-0.022437 23.390399 0.000000
-2.152677 23.172725 0.000000
4.300450 23.128144 0.000000
-3.834514 29.145940 0.000000
1.016923 25.023221 0.000000
-0.018144 23.882590 0.000000
-2.794226 28.752823 0.000000
-3.619786 28.062199 0.000000
3.016063 29.027301 0.000000
-4.482278 25.423069 0.000000
-1.170685 23.253068 0.000000
-2.987441 26.423468 0.000000
0.720163 23.330251 0.000000
-2.142722 29.953118 0.000000
0.643044 27.253399 0.000000
-0.310570 21.203084 0.000000
-0.992684 24.127105 0.000000
-3.013751 26.093668 0.000000
-1.713381 23.928260 0.000000
4.078701 26.788959 0.000000
-4.491511 26.093470 0.000000
2.912387 23.166504 0.000000
2.076629 28.110646 0.000000
-3.410621 25.647005 0.000000
1.455128 20.522507 0.000000
-1.001579 23.613830 0.000000
0.595881 27.772553 0.000000
-3.104808 22.460271 0.000000
-3.286990 28.926209 0.000000
-2.906822 23.466943 0.000000
-4.951029 25.259579 0.000000
2.865844 28.415822 0.000000
4.499020 24.261381 0.000000
-4.747797 21.639649 0.000000
-4.035569 29.424318 0.000000
1.763976 23.320651 0.000000
4.915540 23.033958 0.000000
3.052134 29.640820 0.000000
1.689033 27.765712 0.000000
3.996330 28.523395 0.000000
3.907162 22.387020 0.000000
2.364512 26.713161 0.000000
1.042909 22.487642 0.000000
-2.051273 29.488042 0.000000
-3.757245 25.026282 0.000000
-1.342393 28.256205 0.000000
-0.050429 25.112537 0.000000
4.654057 22.597005 0.000000
3.587381 21.978709 0.000000
2.175641 23.105976 0.000000
4.099512 21.974943 0.000000
-4.147292 27.647542 0.000000
2.882133 24.500890 0.000000
-4.984543 22.792674 0.000000
2.485303 24.025781 0.000000
-3.866769 20.101797 0.000000
4.445861 21.987057 0.000000
-2.408915 22.720619 0.000000
-3.622152 22.522320 0.000000
4.637450 27.514913 0.000000
0.371252 29.401694 0.000000
-0.692455 24.330270 0.000000
-3.048761 23.546041 0.000000
3.594723 25.885670 0.000000
4.125975 28.200159 0.000000
-2.700476 29.562657 0.000000
-4.928078 29.666332 0.000000
4.311594 24.088491 0.000000
-1.597768 21.696605 0.000000
0.080947 27.166010 0.000000
0.807371 23.620361 0.000000
-3.949772 28.986420 0.000000
2.872043 28.227915 0.000000
2.761291 22.410592 0.000000
1.532593 25.145178 0.000000
-3.309365 21.495364 0.000000
4.047464 21.272235 0.000000
-2.872324 28.580735 0.000000
-0.200014 25.034751 0.000000
2.966836 23.392965 0.000000
1.150688 25.918916 0.000000
-4.541799 28.375717 0.000000
-0.129237 28.555597 0.000000
0.051719 23.971183 0.000000
-2.910236 24.927231 0.000000
0.081197 20.866071 0.000000
4.100717 25.510975 0.000000
-4.259692 23.056522 0.000000
-0.059985 27.146552 0.000000
4.572543 20.132775 0.000000
-2.981906 28.485926 0.000000
3.069376 28.617888 0.000000
-1.482307 29.368014 0.000000
3.943405 23.092238 0.000000
-2.165469 22.659868 0.000000
-1.502728 26.204780 0.000000
-1.740879 20.426875 0.000000
-4.564235 20.406332 0.000000
-0.630463 24.741730 0.000000
1.579118 24.206785 0.000000
2.158208 26.391608 0.000000
2.163759 29.681790 0.000000
1.242370 29.358002 0.000000
-4.395438 21.754356 0.000000
-4.389604 24.062556 0.000000
-4.583323 25.496839 0.000000
4.072236 21.546074 0.000000
2.997786 23.832101 0.000000
2.213382 25.672499 0.000000
0.060998 23.377897 0.000000
3.827450 24.428685 0.000000
-0.468740 28.310148 0.000000
-1.277117 27.700741 0.000000
2.226435 24.504943 0.000000
4.905066 28.763262 0.000000
-0.971416 25.524123 0.000000
1.473329 23.229331 0.000000
0.530691 22.632750 0.000000
-3.458615 24.007775 0.000000
4.401951 27.275667 0.000000
-2.354010 23.963006 0.000000
-1.525536 20.792318 0.000000
-2.585796 27.197428 0.000000
3.199721 23.694467 0.000000
-1.693960 22.148553 0.000000
3.034002 27.640930 0.000000
2.146044 22.043212 0.000000
-4.244796 21.041663 0.000000
-4.845703 20.694094 0.000000
-1.065082 23.387133 0.000000
-0.379205 29.312061 0.000000
4.852338 20.015485 0.000000
3.597089 28.426103 0.000000
4.757433 23.223640 0.000000
3.798746 28.891078 0.000000
3.854445 25.249913 0.000000
2.359372 29.521395 0.000000
1.934222 26.112292 0.000000
3.128253 28.181702 0.000000
2.926663 25.996772 0.000000
-2.589814 29.748643 0.000000
-2.332181 23.657628 0.000000
-1.055070 22.976907 0.000000
-3.710551 29.515544 0.000000
-1.185652 29.578822 0.000000
1.908860 29.461565 0.000000
4.721741 26.710225 0.000000
1.057574 28.416496 0.000000
-3.774629 21.836439 0.000000
0.905995 26.750555 0.000000
-0.869197 28.203293 0.000000
1.559726 23.619774 0.000000
-1.597669 21.076969 0.000000
-4.444644 29.753913 0.000000
-2.512451 25.124053 0.000000
-0.782658 24.164327 0.000000
-1.141312 21.924131 0.000000
-3.981279 24.043883 0.000000
-3.374211 28.894671 0.000000
-4.950163 28.573397 0.000000
-3.810882 20.700250 0.000000
2.156315 22.128832 0.000000
1.596465 28.003722 0.000000
1.689723 23.320928 0.000000
-2.886244 20.160125 0.000000
-4.496193 20.139443 0.000000
-1.172838 29.128808 0.000000
1.240277 29.847370 0.000000
-2.850873 23.007947 0.000000
0.019395 25.217312 0.000000
-0.929098 26.190281 0.000000
1.943575 25.790614 0.000000
-4.667033 27.721452 0.000000
-0.156817 22.006467 0.000000
0.885163 21.932602 0.000000
-3.386590 26.951186 0.000000
4.376677 28.208488 0.000000
0.311875 27.786356 0.000000
4.490322 25.325994 0.000000
-4.172134 28.924092 0.000000
-4.841464 28.482203 0.000000
-1.905146 21.348933 0.000000
-4.216470 21.999722 0.000000
-0.717031 28.486747 0.000000
-4.709483 25.618358 0.000000
-3.787275 21.596295 0.000000
4.642372 28.681462 0.000000
1.780367 21.046963 0.000000
-2.061919 28.188420 0.000000
1.372731 29.929076 0.000000
2.262358 21.256892 0.000000
-1.995306 27.821356 0.000000
-2.557249 22.510820 0.000000
-1.504735 22.067160 0.000000
-4.570690 25.389387 0.000000
0.316870 22.229345 0.000000
-1.115568 23.621904 0.000000
2.316470 24.685325 0.000000
-1.821342 29.669362 0.000000
3.810193 20.238396 0.000000
-2.377000 23.239106 0.000000
1.975092 26.170916 0.000000
-3.137022 26.462741 0.000000
-3.992808 25.160544 0.000000
4.542196 29.382851 0.000000
-0.729049 29.023962 0.000000
1.235223 22.527056 0.000000
2.521560 28.509880 0.000000
1.396568 22.006291 0.000000
3.435783 28.561955 0.000000
-1.236264 29.256076 0.000000
1.674914 28.579538 0.000000
4.274194 20.265854 0.000000
0.610383 20.687302 0.000000
4.474333 21.282135 0.000000
-2.762374 24.679936 0.000000
2.802774 26.672259 0.000000
0.513077 20.677546 0.000000
-2.033137 29.166928 0.000000
4.443500 27.709807 0.000000
-0.496735 24.028206 0.000000
-4.108792 23.380313 0.000000
0.883430 22.327433 0.000000
-1.172363 28.915658 0.000000
3.245552 22.456568 0.000000
-4.719861 27.943207 0.000000
-1.243079 27.886355 0.000000
-0.896046 26.881571 0.000000
3.040152 23.906186 0.000000
1.371361 20.036113 0.000000
1.601250 28.580619 0.000000
-2.035854 22.530694 0.000000
-1.050807 21.138507 0.000000
3.161709 29.898130 0.000000
2.405114 20.584587 0.000000
-2.545603 23.064036 0.000000
-3.101813 26.088499 0.000000
-4.309856 22.782937 0.000000
-2.629889 24.587211 0.000000
-2.577300 25.577129 0.000000
-0.922145 26.801245 0.000000
4.859720 29.125610 0.000000
-1.105740 25.747803 0.000000
1.590769 27.302917 0.000000
-3.438361 26.002583 0.000000
2.651473 29.375599 0.000000
0.874463 20.800085 0.000000
-4.083495 28.607422 0.000000
-1.266220 26.119624 0.000000
-3.908634 21.603896 0.000000
2.359274 21.250213 0.000000
-4.766397 21.946230 0.000000
0.648326 27.555762 0.000000
2.282205 23.237149 0.000000
4.072983 27.843583 0.000000
-1.292558 28.497329 0.000000
-0.058987 25.732029 0.000000
1.439225 29.784087 0.000000
-4.074196 20.615613 0.000000
-0.062760 29.112679 0.000000
-0.745022 24.028491 0.000000
2.375707 26.863419 0.000000
-0.473009 21.220547 0.000000
4.568397 26.858030 0.000000
2.688125 21.482606 0.000000
3.650066 28.835875 0.000000
-0.202073 29.187830 0.000000
1.653047 26.578104 0.000000
-0.306887 23.630007 0.000000
0.544627 26.355731 0.000000
-2.823767 28.465227 0.000000
3.057780 21.748494 0.000000
1.467170 21.648956 0.000000
-1.319556 25.873955 0.000000
-0.730486 27.209243 0.000000
4.639110 29.487502 0.000000
0.902494 23.837841 0.000000
1.727094 25.130521 0.000000
1.083770 28.955490 0.000000
4.471334 27.653820 0.000000
-1.211444 26.865836 0.000000
-0.553061 23.964783 0.000000
-0.709067 20.796847 0.000000
1.422332 22.937239 0.000000
3.938672 29.650860 0.000000
-1.190768 29.755661 0.000000
4.765430 22.209681 0.000000
1.069640 22.086715 0.000000
-3.735645 29.474739 0.000000
-4.129139 24.079634 0.000000
-0.780347 25.461488 0.000000
-1.782486 26.879729 0.000000
0.271371 24.604834 0.000000
-3.999303 25.845798 0.000000
-4.676399 20.108676 0.000000
1.237566 29.603366 0.000000
1.349713 20.154338 0.000000
1.909832 29.582224 0.000000
-4.774498 22.927585 0.000000
-0.443287 27.324950 0.000000
-2.051247 23.303355 0.000000
3.846139 27.853813 0.000000
1.315384 29.994083 0.000000
4.870965 28.095273 0.000000
4.842324 27.170548 0.000000
-1.158350 20.265160 0.000000
-1.581420 28.267848 0.000000
3.881051 24.459721 0.000000
-1.064706 24.470193 0.000000
4.693978 20.853450 0.000000
-0.435132 25.093742 0.000000
-2.024638 27.316402 0.000000
2.665547 24.276445 0.000000
-2.425498 22.416457 0.000000
0.800100 27.507390 0.000000
-1.562040 29.416605 0.000000
-4.715333 29.327993 0.000000
4.509100 21.017332 0.000000
-3.711242 23.825034 0.000000
-3.626391 25.996974 0.000000
-4.169730 26.811285 0.000000
2.586397 26.294487 0.000000
-3.485049 22.797802 0.000000
-3.983916 22.944242 0.000000
0.842807 27.101098 0.000000
-1.297364 25.020767 0.000000
3.603591 22.644294 0.000000
3.275402 20.966328 0.000000
1.067046 20.041885 0.000000
-3.432582 25.178352 0.000000
4.944340 22.785755 0.000000
-1.854147 26.197935 0.000000
-0.169246 21.553767 0.000000
1.159306 26.616795 0.000000
-0.977448 21.433114 0.000000
-1.255728 20.718220 0.000000
-3.595058 20.458144 0.000000
-2.018765 29.244276 0.000000
1.644664 29.191770 0.000000
4.874236 23.716623 0.000000
2.075646 25.864945 0.000000
3.253515 26.530992 0.000000
-0.752350 28.610180 0.000000
-1.218834 26.470570 0.000000
1.848572 23.233733 0.000000
4.412715 26.627396 0.000000
1.892902 21.369613 0.000000
-0.531869 25.293666 0.000000
-1.105517 22.976356 0.000000
3.962455 26.484303 0.000000
-2.582683 29.983701 0.000000
-4.950214 20.990414 0.000000
-1.322440 29.743474 0.000000
-2.828597 24.527923 0.000000
-2.692153 29.568104 0.000000
-1.743832 22.972034 0.000000
0.183805 25.234333 0.000000
2.522161 26.737979 0.000000
-3.837735 24.911523 0.000000
3.073405 27.788625 0.000000
-2.000152 26.964952 0.000000
-2.612068 24.325817 0.000000
2.325005 26.657615 0.000000
-0.183878 27.500262 0.000000
1.488925 20.751533 0.000000
0.456861 28.009698 0.000000
-0.879463 23.565201 0.000000
-2.988337 24.316122 0.000000
-0.385080 24.179520 0.000000
-1.469665 24.307827 0.000000
-1.497211 25.556646 0.000000
2.231098 25.542422 0.000000
-2.596975 21.364627 0.000000
1.296568 25.430216 0.000000
-2.594013 27.498531 0.000000
4.333330 29.301025 0.000000
-2.153351 28.727179 0.000000
-3.217883 25.692979 0.000000
-4.479921 21.507660 0.000000
-0.962657 27.231257 0.000000
-1.854397 28.048352 0.000000
0.115044 21.071837 0.000000
-4.749653 22.949735 0.000000
3.107749 29.070631 0.000000
-3.143097 28.975067 0.000000
-0.643340 27.928055 0.000000
-2.180921 29.044884 0.000000
-1.490654 24.369019 0.000000
-0.303749 20.955875 0.000000
1.475544 28.215215 0.000000
2.876826 27.678796 0.000000
-2.939478 23.937037 0.000000
0.270802 24.848676 0.000000
2.365056 29.763166 0.000000
2.325645 27.278095 0.000000
-4.463482 24.527386 0.000000
-4.555880 23.906304 0.000000
0.450450 22.481308 0.000000
-3.635450 23.819102 0.000000
-4.769625 25.209821 0.000000
0.210365 24.664937 0.000000
-0.597745 26.784648 0.000000
2.742657 28.377782 0.000000
2.537372 26.109530 0.000000
2.328827 21.701047 0.000000
3.123132 24.495353 0.000000
2.827514 21.484281 0.000000
3.980272 29.867520 0.000000
-2.841151 28.906098 0.000000
-4.337980 27.527325 0.000000
-3.397742 28.708348 0.000000
-2.809578 29.045076 0.000000
-3.757225 25.643987 0.000000
4.560725 27.760572 0.000000
4.762381 29.171726 0.000000
1.690951 21.020931 0.000000
1.157883 24.584228 0.000000
-0.306340 22.730979 0.000000
-4.379405 22.979930 0.000000
-1.797224 28.685436 0.000000
3.665885 23.143291 0.000000
-2.861797 23.696430 0.000000
2.861413 21.209609 0.000000
0.101453 22.854806 0.000000
-0.669972 25.942222 0.000000
-2.981226 28.610798 0.000000
-4.597398 26.288831 0.000000
3.176269 29.443073 0.000000
4.523443 28.679361 0.000000
2.444399 28.279264 0.000000
3.589592 20.832570 0.000000
1.371258 25.159561 0.000000
4.543737 20.618387 0.000000
-0.696388 25.470532 0.000000
-4.335679 23.629651 0.000000
1.556046 27.825521 0.000000
4.271139 21.925588 0.000000
-4.681642 25.948229 0.000000
-1.899691 27.915324 0.000000
-0.157181 27.973734 0.000000
-1.299511 29.533899 0.000000
2.615031 21.240486 0.000000
2.840509 24.208899 0.000000
4.858222 26.807297 0.000000
3.068793 21.825586 0.000000
4.246980 25.706832 0.000000
1.047277 22.297239 0.000000
2.211380 28.635150 0.000000
-2.497903 27.121133 0.000000
4.869817 28.460034 0.000000
1.253119 28.364219 0.000000
-1.930854 21.719489 0.000000
4.735772 22.458195 0.000000
2.844942 27.510149 0.000000
-1.112958 25.775431 0.000000
1.568801 26.953102 0.000000
1.986734 27.896410 0.000000
-0.457962 24.637833 0.000000
3.331707 28.150828 0.000000
-4.599592 27.403355 0.000000
0.773284 21.560216 0.000000
2.722359 27.623471 0.000000
1.974741 26.543836 0.000000
1.999471 22.046548 0.000000
3.545073 21.492170 0.000000
-0.159183 21.238806 0.000000
2.419849 25.781949 0.000000
-1.964866 22.945002 0.000000
0.553822 28.250166 0.000000
-4.566031 24.878181 0.000000
-2.703589 26.582413 0.000000
-0.760089 21.514489 0.000000
-1.248021 29.785943 0.000000
3.783312 29.064978 0.000000
-4.694928 21.548710 0.000000
3.266989 22.772753 0.000000
-4.218476 23.240814 0.000000
-2.619215 28.772807 0.000000
-4.297737 28.133600 0.000000
-2.370184 24.705918 0.000000
-3.582709 20.321028 0.000000
-4.652317 29.475975 0.000000
-3.093447 27.452312 0.000000
4.076583 24.638723 0.000000
2.146632 27.411063 0.000000
-0.292588 20.616380 0.000000
-0.481561 29.174131 0.000000
3.291671 24.611827 0.000000
2.489896 25.353657 0.000000
1.820769 23.681304 0.000000
-1.947691 29.095761 0.000000
0.308433 23.780497 0.000000
-2.219555 29.643121 0.000000
-3.533720 22.517848 0.000000
-4.115622 29.931802 0.000000
0.654028 23.851854 0.000000
-3.498763 25.368517 0.000000
1.169408 22.778426 0.000000
3.427537 27.427320 0.000000
1.913784 27.569297 0.000000
-3.545196 29.263890 0.000000
3.610788 29.110442 0.000000
2.034320 29.552382 0.000000
-0.444986 25.174542 0.000000
0.907127 22.292199 0.000000
-3.880616 22.965281 0.000000
3.654643 21.721597 0.000000
-1.075054 23.911628 0.000000
-2.799654 29.913111 0.000000
-2.071139 21.936754 0.000000
0.577450 20.150269 0.000000
-4.730130 22.583031 0.000000
-2.008628 24.222636 0.000000
3.044701 23.112921 0.000000
-0.903486 29.989190 0.000000
-0.572086 20.461310 0.000000
2.825298 22.744997 0.000000
-2.037549 24.752883 0.000000
0.460350 29.859425 0.000000
0.973296 29.791640 0.000000
-2.624277 26.159072 0.000000
3.474036 22.936367 0.000000
1.134485 21.502617 0.000000
1.830340 29.145572 0.000000
3.266246 23.002158 0.000000
-1.053761 26.359013 0.000000
-1.974140 21.776914 0.000000
3.051198 23.005101 0.000000
-3.769671 29.683858 0.000000
4.873998 23.834934 0.000000
-4.252327 22.354381 0.000000
-3.710064 29.737266 0.000000
-4.196364 22.844703 0.000000
-4.646752 28.787948 0.000000
2.482042 28.313730 0.000000
3.303299 25.177338 0.000000
4.740425 24.302021 0.000000
1.151288 20.584595 0.000000
-1.769052 27.436738 0.000000
-2.082848 26.986112 0.000000
3.961068 25.513425 0.000000
-1.038316 26.661120 0.000000
-3.192293 24.244897 0.000000
3.397218 27.490009 0.000000
-4.030427 23.867056 0.000000
0.158898 20.546282 0.000000
-4.348578 21.501290 0.000000
-2.990767 27.729542 0.000000
-4.783836 23.446653 0.000000
4.447441 29.555763 0.000000
4.807898 29.754228 0.000000
-3.245710 28.364853 0.000000
3.591316 29.960552 0.000000
3.739118 29.769349 0.000000
0.707376 25.879513 0.000000
3.490345 29.735227 0.000000
4.104441 20.307493 0.000000
1.563949 28.680243 0.000000
4.998538 23.240295 0.000000
4.380014 24.706433 0.000000
2.402454 26.852343 0.000000
-3.782264 23.169131 0.000000
-2.175538 23.442169 0.000000
-4.633659 20.409641 0.000000
-0.308210 23.859923 0.000000
1.104344 29.627288 0.000000
1.045410 20.175756 0.000000
0.833597 27.177324 0.000000
-2.365192 24.962546 0.000000
0.157222 25.725630 0.000000
-4.925088 26.689995 0.000000
1.265379 24.888276 0.000000
0.689503 23.996239 0.000000
-2.578049 21.227614 0.000000
-4.976200 27.132617 0.000000
4.428589 25.985246 0.000000
3.197113 27.326809 0.000000
0.399348 25.393663 0.000000
-1.352632 24.611215 0.000000
-1.755905 29.115179 0.000000
-2.138380 27.980374 0.000000
-4.881264 20.948752 0.000000
-2.629728 23.008054 0.000000
0.570871 29.479107 0.000000
-3.245044 28.267969 0.000000
0.813316 27.609433 0.000000
-0.578858 22.823584 0.000000
-1.457476 29.855968 0.000000
3.833305 20.122778 0.000000
2.633134 24.927844 0.000000
-2.199700 20.817309 0.000000
3.344505 20.738419 0.000000
-0.778959 28.389337 0.000000
-2.727932 21.933407 0.000000
-3.300117 27.658250 0.000000
2.845177 20.501518 0.000000
-3.306111 29.037267 0.000000
4.867284 24.133395 0.000000
-1.258678 25.640578 0.000000
0.947514 26.053132 0.000000
-1.659463 29.871295 0.000000
4.438133 21.183275 0.000000
4.154825 25.623369 0.000000
0.040017 28.532017 0.000000
-4.688935 25.001682 0.000000
-4.233787 27.830567 0.000000
-0.780973 28.535563 0.000000
-2.453479 29.976477 0.000000
1.990627 27.834201 0.000000
-3.603087 27.927701 0.000000
1.123825 28.472083 0.000000
-2.891732 29.925114 0.000000
-3.154550 29.242728 0.000000
-3.861752 24.380655 0.000000
-3.146339 27.499437 0.000000
-0.932864 25.253352 0.000000
1.892612 20.518055 0.000000
2.421415 26.247360 0.000000
3.885304 27.674747 0.000000
3.883178 23.977176 0.000000
1.561832 29.784100 0.000000
3.837825 27.230664 0.000000
-3.597285 25.681871 0.000000
-4.480106 23.130954 0.000000
0.606965 29.583202 0.000000
3.377612 25.128712 0.000000
0.241611 29.086682 0.000000
-2.545322 24.257240 0.000000
0.594403 23.268861 0.000000
-3.180337 25.589096 0.000000
2.711171 23.718084 0.000000
-2.981017 26.979300 0.000000
3.888737 26.612648 0.000000
-4.621280 23.717650 0.000000
-2.433767 26.138485 0.000000
-2.361662 22.035936 0.000000
-2.926277 22.371600 0.000000
-1.399037 25.827087 0.000000
-2.054507 21.859183 0.000000
0.692648 25.477431 0.000000
4.033043 24.444734 0.000000
-2.878100 28.789369 0.000000
4.639634 20.709156 0.000000
-1.459556 24.811499 0.000000
-1.031649 22.500336 0.000000
2.209555 20.977732 0.000000
-1.814553 27.012911 0.000000
-2.127095 22.871251 0.000000
2.052428 23.172124 0.000000
1.889437 23.474732 0.000000
2.036661 23.003341 0.000000
-1.922671 27.175494 0.000000
-4.145949 22.984496 0.000000
-1.626803 21.657226 0.000000
1.809314 26.011178 0.000000
1.025458 24.947952 0.000000
-2.191504 28.188525 0.000000
0.175494 23.455791 0.000000
1.786561 25.794333 0.000000
4.794813 22.618470 0.000000
-2.791714 21.655098 0.000000
-3.900268 26.463196 0.000000
4.493139 23.888897 0.000000
3.264373 20.657257 0.000000
0.317362 21.658547 0.000000
-4.178153 21.054137 0.000000
-0.269161 22.825801 0.000000
0.379429 24.432358 0.000000
4.958310 24.308594 0.000000
2.532068 20.354283 0.000000
4.762299 21.090067 0.000000
-0.556983 27.427557 0.000000
3.610765 23.850776 0.000000
-1.949477 21.639328 0.000000
1.625708 22.641195 0.000000
0.220582 24.073012 0.000000
-3.172508 27.439683 0.000000
-0.259972 27.981796 0.000000
1.120981 27.848647 0.000000
-3.842411 28.568527 0.000000
-3.340376 28.744504 0.000000
2.940560 21.302627 0.000000
2.957837 23.270697 0.000000
-2.781990 21.794881 0.000000
-4.002456 28.655862 0.000000
-2.257099 29.522060 0.000000
-1.468843 28.191984 0.000000
1.129295 23.154248 0.000000
1.042780 25.971688 0.000000
-4.304840 20.499970 0.000000
0.615340 26.918218 0.000000
1.278468 28.016931 0.000000
-2.365258 27.772689 0.000000
-0.413844 22.666618 0.000000
2.263191 24.675121 0.000000
2.800370 23.303675 0.000000
1.703589 25.350954 0.000000
-2.825910 29.569255 0.000000
4.324376 27.761495 0.000000
4.486173 28.301591 0.000000
4.115863 29.250880 0.000000
1.981084 20.031257 0.000000
1.791275 24.860347 0.000000
-1.151180 22.886148 0.000000
2.913843 24.623461 0.000000
-4.454651 25.223307 0.000000
-3.507937 23.172380 0.000000
-2.433994 23.298780 0.000000
-4.151801 21.887508 0.000000
-1.394562 24.746701 0.000000
-1.485060 24.198015 0.000000
0.375570 26.162280 0.000000
-0.971319 26.957548 0.000000
-0.912565 21.465981 0.000000
1.028103 22.443290 0.000000
-4.518532 29.620882 0.000000
1.452883 23.815009 0.000000
-3.106411 24.541852 0.000000
-4.358394 23.185030 0.000000
3.632374 23.889647 0.000000
-1.343484 21.618048 0.000000
3.746756 27.067810 0.000000
2.651917 29.635523 0.000000
4.713618 24.914804 0.000000
-0.590324 20.039031 0.000000
-4.126869 28.500334 0.000000
-4.372389 21.793597 0.000000
-4.384236 20.928099 0.000000
0.542924 23.800777 0.000000
3.300840 25.677794 0.000000
3.629653 26.481206 0.000000
2.578128 26.065918 0.000000
3.706128 21.730209 0.000000
0.481244 21.670496 0.000000
2.440679 28.479391 0.000000
0.674290 27.388598 0.000000
3.984285 22.158327 0.000000
-4.043250 23.080924 0.000000
1.918650 25.321464 0.000000
1.562517 24.765398 0.000000
-0.924070 28.840106 0.000000
-3.275903 28.052015 0.000000
-1.687561 24.561047 0.000000
-3.766973 29.023400 0.000000
0.374731 25.002782 0.000000
-2.726060 27.463592 0.000000
-0.596224 29.633710 0.000000
-2.370909 23.577630 0.000000
-1.681613 29.016156 0.000000
-2.976532 21.442314 0.000000
3.325695 28.023348 0.000000
1.782594 23.607067 0.000000
4.913981 29.183972 0.000000
4.006544 20.533161 0.000000
4.431164 22.452190 0.000000
0.846455 28.050954 0.000000
-2.341841 29.954410 0.000000
4.662064 29.611617 0.000000
-4.332024 24.766916 0.000000
-3.040168 25.818961 0.000000
-1.999348 28.028877 0.000000
3.081859 24.485325 0.000000
1.583722 23.999635 0.000000
-4.051646 20.225692 0.000000
-4.755274 23.083687 0.000000
4.724716 27.404392 0.000000
4.449211 28.951332 0.000000
-1.075810 29.946205 0.000000
-0.953424 21.023815 0.000000
-4.286895 23.131107 0.000000
-2.629606 23.365929 0.000000
3.446372 21.397123 0.000000
2.162498 25.332329 0.000000
-0.947406 24.842165 0.000000
-1.128140 28.932677 0.000000
-2.715671 27.874047 0.000000
1.901904 21.787806 0.000000
-0.204813 25.064834 0.000000
2.986472 21.061634 0.000000
0.434655 20.794398 0.000000
4.959025 26.069684 0.000000
0.147844 28.338415 0.000000
-2.530441 21.350076 0.000000
-4.086006 23.132729 0.000000
-3.418137 26.547265 0.000000
-2.641313 23.928274 0.000000
0.867690 26.704093 0.000000
-2.105306 29.165782 0.000000
-4.689340 29.817115 0.000000
4.154930 23.463314 0.000000
0.765213 24.834369 0.000000
-2.417679 28.323849 0.000000
1.027141 25.601872 0.000000
-1.391785 23.816102 0.000000
0.334794 29.689638 0.000000
4.379406 28.570199 0.000000
2.896284 29.140019 0.000000
-0.890163 25.624822 0.000000
-3.673163 25.511436 0.000000
2.788059 24.005282 0.000000
-2.408260 24.269554 0.000000
-2.623365 22.153073 0.000000
-1.232112 22.920594 0.000000
0.843876 26.880236 0.000000
1.610019 20.008590 0.000000
1.073094 25.988496 0.000000
-4.714135 25.418260 0.000000
1.022059 24.816172 0.000000
0.899845 26.833702 0.000000
-4.764312 20.291085 0.000000
2.837255 28.390519 0.000000
3.958537 20.693648 0.000000
3.965683 27.752949 0.000000
-0.471143 24.625468 0.000000
-3.307017 26.534656 0.000000
-4.570130 23.626941 0.000000
-0.156695 23.853958 0.000000
-2.059331 27.116206 0.000000
-3.817625 28.899535 0.000000
3.183630 21.422698 0.000000
2.514841 22.714867 0.000000
-0.963297 23.215894 0.000000
0.301311 27.534226 0.000000
-4.419479 20.028935 0.000000
0.863473 21.308734 0.000000
-2.288743 23.176340 0.000000
-1.676267 29.498535 0.000000
3.226528 20.018157 0.000000
2.720705 27.597742 0.000000
1.535458 21.796136 0.000000
-1.184465 29.417564 0.000000
-0.089854 24.397654 0.000000
-1.380827 29.551368 0.000000
-1.219864 27.870299 0.000000
1.118035 26.662021 0.000000
-1.648371 28.463657 0.000000
1.062342 23.734323 0.000000
2.731398 25.980472 0.000000
-1.891235 21.071376 0.000000
2.983360 20.256668 0.000000
-1.832593 26.718667 0.000000
1.108009 25.318731 0.000000
3.664113 23.726205 0.000000
4.736078 29.314371 0.000000
-0.850001 25.373527 0.000000
-0.876558 21.160742 0.000000
1.550658 29.999663 0.000000
-0.997930 23.778632 0.000000
-1.226979 27.697151 0.000000
2.242464 24.184804 0.000000
1.849204 21.031081 0.000000
3.508171 25.619892 0.000000
3.393791 20.374581 0.000000
-4.277397 25.773176 0.000000
-2.695385 28.720138 0.000000
0.780444 20.050481 0.000000
2.730960 27.645260 0.000000
-3.053082 27.748129 0.000000
-4.399244 21.824755 0.000000
-1.444552 29.652412 0.000000
1.761042 23.187892 0.000000
-3.942347 27.923831 0.000000
0.494378 21.568054 0.000000
4.024406 29.253131 0.000000
4.857044 29.623391 0.000000
-2.880158 20.812061 0.000000
-2.328800 29.980794 0.000000
-1.708711 29.750004 0.000000
4.709288 28.507993 0.000000
-2.244899 23.136300 0.000000
-3.496367 21.027732 0.000000
0.405752 28.224968 0.000000
-4.355398 26.155938 0.000000
0.938530 27.040574 0.000000
-2.252965 27.444730 0.000000
0.637041 26.147723 0.000000
3.734053 26.920213 0.000000
-4.413838 28.663351 0.000000
3.904329 24.427668 0.000000
-2.091276 28.052499 0.000000
0.704138 21.132530 0.000000
-4.085440 29.306846 0.000000
1.595772 27.555833 0.000000
-3.120879 29.637960 0.000000
-1.209302 25.937762 0.000000
-1.517854 27.674568 0.000000
-3.682487 22.281090 0.000000
-0.401490 20.658430 0.000000
-2.029431 27.731913 0.000000
0.000000 -3.909568 -3.065669
0.000000 3.857933 -2.001392
0.000000 3.641917 3.565254
0.000000 1.085621 -3.146206
0.000000 2.284071 -0.539232
0.000000 -3.720075 -0.090737
0.000000 -3.257152 -3.661071
0.000000 1.539658 -2.155386
0.000000 1.460876 2.734913
0.000000 4.980003 -3.472762
0.000000 1.585421 -0.313838
0.000000 2.400623 2.763139
0.000000 -2.405827 -0.740792
0.000000 1.937574 -4.976689
0.000000 0.323800 -3.975337
0.000000 2.596225 1.500917
0.000000 -3.206205 -1.725737
0.000000 4.649145 2.317916
0.000000 -4.008530 4.893707
0.000000 -3.568136 1.232360
0.000000 -4.038945 4.432743
0.000000 -3.678863 3.180631
0.000000 1.802008 2.635450
0.000000 4.835783 -0.069237
0.000000 1.371573 -0.476944
0.000000 2.312580 3.392223
0.000000 1.682680 2.785213
0.000000 -3.731025 -4.512345
0.000000 -2.969661 -0.772534
0.000000 -2.272893 -0.920088
0.000000 -2.102822 -0.192426
0.000000 -0.741590 -4.632481
0.000000 1.306102 -2.034133
0.000000 -2.675805 2.767150
0.000000 -4.659215 4.083864
0.000000 -1.326599 2.510200
0.000000 1.815435 4.488444
0.000000 -0.309772 -2.321519
0.000000 -4.136678 -4.332967
0.000000 1.859407 -3.300584
0.000000 -3.448928 -1.660721
0.000000 -4.625028 -3.877014
0.000000 -0.777824 1.121984
0.000000 4.782011 2.421905
0.000000 -3.483192 -0.240850
0.000000 -1.615485 -2.442553
0.000000 -2.860003 3.081417
0.000000 -3.085447 -4.924405
0.000000 -2.282902 0.535682
0.000000 -2.429642 -3.090267
0.000000 -4.973947 -2.535490
0.000000 0.568895 -0.751803
0.000000 -4.318893 -4.043088
0.000000 3.799257 2.227449
0.000000 -0.727294 2.848320
0.000000 0.301648 3.440967
0.000000 -4.571834 -4.129216
0.000000 1.134648 -0.144926
0.000000 -2.505459 -4.220246
0.000000 1.886261 3.394693
0.000000 1.553490 3.455948
0.000000 4.183462 -1.810191
0.000000 4.352597 1.433731
0.000000 2.061002 -2.597189
0.000000 -2.199598 -4.666769
0.000000 3.971404 4.701995
0.000000 -3.881693 -3.595026
0.000000 3.942805 2.890872
0.000000 2.193055 3.086114
0.000000 4.810062 -2.381450
0.000000 -2.054248 -1.055019
0.000000 -2.450940 -2.963798
0.000000 3.235405 3.600197
0.000000 -0.248603 1.559097
0.000000 -1.451776 4.908290
0.000000 2.404391 -0.921978
0.000000 4.291465 3.679792
0.000000 -1.856477 -1.942864
0.000000 3.131659 4.348837
0.000000 -0.424636 0.308511
0.000000 -0.852056 -2.241470
0.000000 -0.268207 4.164182
0.000000 -1.302351 1.992756
0.000000 0.734945 3.779925
0.000000 -3.247090 -3.564650
0.000000 4.808900 2.152269
0.000000 -2.130468 -4.478059
0.000000 -2.272257 -1.793732
0.000000 3.956067 0.903369
0.000000 -2.124954 1.167333
0.000000 -1.027901 -4.847023
0.000000 -2.820079 2.799910
0.000000 -1.669475 0.220917
0.000000 -3.393746 -3.234053
0.000000 2.502637 -0.543477
0.000000 -0.935331 4.539778
0.000000 -0.202448 -4.310058
0.000000 -4.101571 3.749640
0.000000 1.154383 0.953919
0.000000 -1.362291 2.780332
0.000000 -0.639662 1.970160
0.000000 3.793332 1.888292
0.000000 -4.037133 -1.497966
0.000000 1.677667 3.596794
0.000000 2.506368 -3.182695
0.000000 0.744057 -0.742159
0.000000 0.444531 2.243771
0.000000 2.696706 2.841876
0.000000 0.742128 -0.048642
0.000000 -3.467756 0.631972
0.000000 -3.152226 -2.659994
0.000000 1.530356 -1.387221
0.000000 -1.095172 -0.699282
0.000000 3.090848 1.988761
0.000000 1.291773 -1.279022
0.000000 3.684716 3.291213
0.000000 0.332222 3.496188
0.000000 -4.523668 0.413373
0.000000 -2.908217 4.382461
0.000000 -3.396414 -0.066369
0.000000 4.263735 2.340936
0.000000 -3.941371 0.388111
0.000000 -2.684248 -1.040275
0.000000 -4.219776 4.919978
0.000000 -4.221235 4.034859
0.000000 3.104282 -4.742138
0.000000 3.852299 -4.780810
0.000000 -4.010541 -1.726974
0.000000 -2.332386 -4.720491
0.000000 -3.615732 3.777404
0.000000 3.340032 1.224525
0.000000 2.474368 -2.968073
0.000000 0.604496 0.388887
0.000000 1.517582 0.051012
0.000000 3.152928 3.482472
0.000000 -0.703122 -3.175391
0.000000 -2.464906 -4.920798
0.000000 -3.301348 4.694513
0.000000 -2.593680 3.583990
0.000000 -3.771235 -3.281009
0.000000 3.384826 0.818624
0.000000 0.337584 1.126284
0.000000 3.966128 0.188687
0.000000 2.069951 -2.128410
0.000000 3.404972 4.999202
0.000000 1.475411 1.634771
0.000000 2.056212 -0.938855
0.000000 4.133070 -1.313117
0.000000 -0.881755 4.848862
0.000000 -3.084174 2.944663
0.000000 2.614440 4.530607
0.000000 3.020386 -2.585656
0.000000 1.243330 -1.813720
0.000000 2.279669 0.169170
0.000000 -1.466296 3.884647
0.000000 3.186032 3.381496
0.000000 -4.172093 -4.090419
0.000000 -1.816177 -2.933655
0.000000 -2.041952 -2.558124
0.000000 1.527060 3.714571
0.000000 0.557262 1.117921
0.000000 -4.355169 3.059273
0.000000 -3.408550 2.206431
0.000000 2.557706 -0.360794
0.000000 0.777604 -0.691397
0.000000 -2.886186 -3.357265
0.000000 -4.965003 -4.011557
0.000000 -1.762077 0.760976
0.000000 -0.701316 3.395488
0.000000 -3.997622 4.219491
0.000000 1.311870 -4.719487
0.000000 -0.655632 -2.426591
0.000000 0.508326 2.602278
0.000000 2.442975 2.224756
0.000000 4.467199 3.852402
0.000000 1.073444 -3.177309
0.000000 0.734214 2.410962
0.000000 -1.426833 2.844103
0.000000 3.658633 -1.076659
0.000000 3.672882 -0.844729
0.000000 3.124341 1.726354
0.000000 -4.494584 1.047719
0.000000 -3.331701 3.239187
0.000000 3.378993 1.594932
0.000000 -3.079680 3.264964
0.000000 3.854167 2.017815
0.000000 0.988053 -1.170122
0.000000 2.800981 -0.342617
0.000000 1.602036 1.645575
0.000000 -1.941410 -3.690619
0.000000 2.249610 2.436710
0.000000 -0.971931 -1.327379
0.000000 -3.685914 -2.858007
0.000000 1.758430 1.273503
0.000000 0.375429 0.226639
0.000000 4.578996 -2.964096
0.000000 2.187803 2.276875
0.000000 3.227736 -4.732635
0.000000 1.338740 -4.200303
0.000000 3.080663 3.642645
0.000000 3.620371 2.373176
0.000000 -4.040998 0.981962
0.000000 4.156012 3.369734
0.000000 -1.508275 -1.909887
0.000000 2.386513 1.144969
0.000000 -2.576838 -4.365345
0.000000 -0.482284 -3.409486
0.000000 3.968144 -4.396027
0.000000 -4.445460 -4.464103
0.000000 -4.301613 4.120520
0.000000 -3.908073 -2.754246
0.000000 -3.094447 -3.943747
0.000000 2.820983 -4.241130
0.000000 3.322195 0.072779
0.000000 -4.891650 2.855805
0.000000 -1.465587 -1.832382
0.000000 -1.248593 2.909423
0.000000 -2.869274 1.236483
0.000000 -4.495296 2.889202
0.000000 -3.044152 -2.102968
0.000000 2.875991 -2.114265
0.000000 4.270140 0.337417
0.000000 3.579419 1.051588
0.000000 -3.836353 -2.260486
0.000000 4.035228 -2.416296
0.000000 4.040192 -3.481668
0.000000 2.251713 -4.061290
0.000000 2.925201 1.908233
0.000000 0.337003 1.486370
0.000000 2.285894 -3.578489
0.000000 2.818868 2.893724
0.000000 3.917477 3.206915
0.000000 -1.721018 4.199619
0.000000 -4.679965 3.990464
0.000000 -4.733075 4.342793
0.000000 0.076206 -0.502289
0.000000 -3.919524 -3.194866
0.000000 0.123342 -0.813045
0.000000 -1.991957 1.024250
0.000000 1.088143 -1.723695
0.000000 -4.464068 3.877228
0.000000 -3.428197 -1.483289
0.000000 4.276503 2.916237
0.000000 0.570920 -4.329457
0.000000 -4.668128 -1.612134
0.000000 -0.155007 -0.487499
0.000000 0.942985 -4.538306
0.000000 2.224596 2.461584
0.000000 0.239492 3.466781
0.000000 -3.240957 -4.980908
0.000000 -1.893880 2.388000
0.000000 4.513396 -3.868001
0.000000 -4.597935 -0.689555
0.000000 -3.112120 -3.892928
0.000000 3.712679 -0.272984
0.000000 0.854470 -4.204732
0.000000 2.283211 2.791659
0.000000 -4.822546 1.037988
0.000000 -3.092901 4.545352
0.000000 -3.782230 -2.389694
0.000000 0.237565 -2.651982
0.000000 0.423883 -1.867939
0.000000 4.675282 -3.268452
0.000000 -4.628756 0.298217
0.000000 -0.996353 0.342881
0.000000 2.076294 -1.480876
0.000000 -0.565160 -3.086266
0.000000 -3.257694 2.733742
0.000000 3.384306 -0.436895
0.000000 2.121288 3.815883
0.000000 -1.441927 0.595235
0.000000 0.848806 -0.505210
0.000000 -4.535708 -2.378045
0.000000 4.333395 0.335449
0.000000 4.841994 -2.890319
0.000000 -0.978807 4.440622
0.000000 1.183189 -1.403010
0.000000 -0.668778 1.996617
0.000000 -0.426881 3.250753
0.000000 -3.045473 1.700807
0.000000 -1.740417 -3.435073
0.000000 0.774981 -1.915023
0.000000 -0.944307 2.977472
0.000000 1.975366 1.281569
0.000000 1.125847 4.410454
0.000000 -1.519430 -4.216345
0.000000 -4.421669 3.337542
0.000000 4.199590 -2.897000
0.000000 4.425753 2.412637
0.000000 4.390450 -0.094595
0.000000 -4.163996 -3.899397
0.000000 -0.097304 3.378143
0.000000 -3.598258 -3.610507
0.000000 2.479790 3.556455
0.000000 -0.337774 0.096478
0.000000 2.693963 -0.376204
0.000000 1.001062 2.767110
0.000000 -0.207987 3.781314
0.000000 2.389479 1.818987
0.000000 1.142473 -3.614984
0.000000 1.530853 2.360683
0.000000 3.683860 1.551392
0.000000 3.293091 -4.469935
0.000000 -3.955957 0.870025
0.000000 3.252363 -2.721186
0.000000 4.055599 2.133865
0.000000 3.387691 -0.587860
0.000000 -4.215374 -1.520471
0.000000 3.669929 3.185656
0.000000 0.319157 4.663261
0.000000 -4.802499 1.699084
0.000000 4.223078 3.124645
0.000000 -1.172343 -2.199943
0.000000 -0.125115 -3.392993
0.000000 -1.183390 -2.209098
0.000000 3.956542 0.864393
0.000000 -3.060332 3.024348
0.000000 4.151150 -3.824161
0.000000 2.593209 4.827352
0.000000 2.390945 -4.648323
0.000000 2.637926 2.795849
0.000000 4.643761 -2.764456
0.000000 -1.110643 -0.181478
0.000000 0.566573 -0.945370
0.000000 1.173914 3.661719
0.000000 2.941451 2.963271
0.000000 4.118635 -0.082399
0.000000 3.551541 3.588505
0.000000 2.246512 -1.430562
0.000000 -0.416635 -3.039147
0.000000 4.078286 4.243317
0.000000 -1.405109 1.219343
0.000000 -4.128466 1.396851
0.000000 2.733404 1.867991
0.000000 -0.529606 -2.065867
0.000000 2.890921 3.438366
0.000000 -1.390805 -3.787554
0.000000 3.561357 -1.454905
0.000000 -1.401372 -1.197987
0.000000 4.471874 4.788776
0.000000 3.315362 -1.231498
0.000000 -1.295238 0.002445
0.000000 -4.198066 -4.464225
0.000000 -0.986994 1.382404
0.000000 -3.223599 1.642099
0.000000 1.162432 0.517649
0.000000 -3.312138 4.201714
0.000000 1.239641 -3.197514
0.000000 -4.741772 4.780207
0.000000 2.123940 -3.581795
0.000000 2.088310 -1.202942
0.000000 -2.328793 1.518365
0.000000 4.604825 -3.636339
0.000000 -4.774910 -0.422357
0.000000 3.707795 -2.287050
0.000000 -2.724442 -4.129395
0.000000 -2.458985 2.147199
0.000000 0.636584 0.090875
0.000000 1.542514 -4.052794
0.000000 -1.338934 -4.858127
0.000000 -0.152963 -4.265738
0.000000 1.737644 -2.406096
0.000000 2.719168 4.278031
0.000000 -3.094883 -3.184071
0.000000 2.154622 1.676679
0.000000 -0.686914 3.570877
0.000000 1.913760 1.616735
0.000000 -0.316461 2.448933
0.000000 -1.320863 -0.461030
0.000000 0.750315 -4.151496
0.000000 -2.312333 0.270048
0.000000 -4.276365 -2.686012
0.000000 1.783304 -1.878931
0.000000 -2.160400 -1.768222
0.000000 -0.640936 2.101718
0.000000 -2.155485 -2.358552
0.000000 -3.568892 1.595232
0.000000 3.726121 -4.299268
0.000000 -4.710912 -1.423593
0.000000 -2.183067 4.239082
0.000000 -4.747525 3.998210
0.000000 4.775179 -3.716279
0.000000 1.742670 -3.394860
0.000000 0.334167 -3.728337
0.000000 -4.183704 -1.056732
0.000000 -0.784704 -1.168557
0.000000 -0.421942 4.450396
0.000000 -4.315869 -2.440610
0.000000 3.446040 0.444131
0.000000 1.203219 1.320347
0.000000 -2.533146 -2.860728
0.000000 0.374180 -1.187752
0.000000 0.067804 1.246521
0.000000 -2.478929 -1.527844
0.000000 2.514616 3.265932
0.000000 2.745572 -3.874800
0.000000 0.515421 -1.112673
0.000000 -4.786638 -2.240375
0.000000 -3.845839 3.860283
0.000000 0.092666 -0.950130
0.000000 -3.153081 2.591052
0.000000 2.899261 4.751267
0.000000 1.632933 0.130837
0.000000 -3.370794 -0.908170
0.000000 -3.874221 4.235490
0.000000 -3.656800 -1.499689
0.000000 -2.551237 -3.198991
0.000000 4.870161 4.643144
0.000000 2.352850 -2.072419
0.000000 -1.794023 -0.069119
0.000000 -3.328393 0.081154
0.000000 4.984239 -0.209555
0.000000 1.694161 -4.333894
0.000000 -0.668126 3.939632
0.000000 -1.410432 4.545764
0.000000 3.198840 3.332431
0.000000 3.377626 -4.777835
0.000000 -4.292253 1.707827
0.000000 2.364116 -3.543487
0.000000 -2.757794 1.168548
0.000000 -2.906297 -2.250971
0.000000 0.565722 0.926002
0.000000 0.233252 3.868020
0.000000 -1.715818 1.730046
0.000000 1.012424 4.932786
0.000000 4.915003 0.110788
0.000000 1.329681 -4.203637
0.000000 -3.935021 -3.186689
0.000000 3.136889 -4.098864
0.000000 3.634359 -0.164290
0.000000 -1.852752 -0.479187
0.000000 -1.015861 -4.398392
0.000000 -4.985580 3.783068
0.000000 1.746779 -4.638260
0.000000 3.374603 -0.556984
0.000000 -2.415119 -2.776122
0.000000 -1.967694 -1.528709
0.000000 -1.775222 0.076419
0.000000 -0.987411 -2.625915
0.000000 -4.919708 4.948191
0.000000 2.145110 -2.432716
0.000000 -0.419399 2.611584
0.000000 0.983228 -3.388682
0.000000 -4.180180 -0.416003
0.000000 4.284485 1.418284
0.000000 4.141209 3.960819
0.000000 2.710159 -1.611653
0.000000 0.443092 2.930210
0.000000 1.370286 3.386655
0.000000 -3.626039 -1.431241
0.000000 4.541884 0.258178
0.000000 4.693922 -4.480969
0.000000 1.731657 3.580891
0.000000 4.339150 -3.831433
0.000000 -3.326728 -2.028804
0.000000 -4.858193 -1.842354
0.000000 2.992099 -1.183093
0.000000 -4.498803 2.529703
0.000000 2.032758 -2.069529
0.000000 -0.247381 -3.925528
0.000000 3.226613 -3.925241
0.000000 -1.768437 -4.044821
0.000000 2.735384 2.789422
0.000000 -0.401509 -2.193294
0.000000 2.712836 3.069884
0.000000 2.733171 4.975687
0.000000 -3.177301 -4.553606
0.000000 -2.207388 3.180700
0.000000 -1.688419 -3.881882
0.000000 -3.406957 2.225122
0.000000 -1.241826 3.262651
0.000000 1.570484 0.203132
0.000000 2.358962 -0.486302
0.000000 -3.485380 3.378503
0.000000 0.287773 0.570640
0.000000 -3.075660 -2.677770
0.000000 3.766167 -4.325726
0.000000 2.642493 4.051488
0.000000 0.738519 -4.021020
0.000000 -4.262167 0.132031
0.000000 1.476103 -0.602946
0.000000 -0.440159 -3.667104
0.000000 1.717616 -3.391839
0.000000 -3.072718 4.653526
0.000000 -1.248054 0.816809
0.000000 0.633695 -2.973690
0.000000 4.862578 -0.893535
0.000000 1.395523 2.801135
0.000000 -2.945679 2.328672
0.000000 -4.203990 0.547863
0.000000 2.790504 0.761726
0.000000 1.771475 1.076722
0.000000 3.792062 3.264375
0.000000 1.733142 1.267633
0.000000 2.224711 4.558057
0.000000 -3.143986 -4.104412
0.000000 -2.199601 2.399993
0.000000 -4.419481 -1.957837
0.000000 -1.627114 -0.666454
0.000000 3.853679 -3.189739
0.000000 -0.385668 -1.485833
0.000000 -1.147837 2.074430
0.000000 -2.575728 1.456590
0.000000 3.416778 -1.247452
0.000000 -0.957773 0.299272
0.000000 -1.121676 2.256903
0.000000 -0.009976 -2.847096
0.000000 4.783106 -2.968730
0.000000 4.695992 -0.374949
0.000000 -3.847549 -0.005209
0.000000 -3.109966 -0.165715
0.000000 -3.490170 1.731330
0.000000 2.484071 -3.539835
0.000000 -0.848125 3.247670
0.000000 -0.967101 -4.840566
0.000000 3.839286 0.298775
0.000000 4.116732 -2.718630
0.000000 4.616396 0.674060
0.000000 -2.380890 4.489557
0.000000 -4.027533 -4.396402
0.000000 3.579351 -4.718758
0.000000 2.124710 2.907195
0.000000 -4.030226 -4.855527
0.000000 -0.754483 2.950706
0.000000 2.033597 3.130151
0.000000 2.390133 0.312607
0.000000 2.288906 -3.720026
0.000000 0.491373 -3.546322
0.000000 0.550326 -2.835636
0.000000 0.147120 -3.207952
0.000000 2.050140 2.073040
0.000000 4.532214 0.841173
0.000000 -2.853991 -1.846568
0.000000 4.744959 0.868952
0.000000 -2.697251 4.947378
0.000000 -4.088776 -3.848153
0.000000 0.888173 0.978008
0.000000 -2.432822 4.167857
0.000000 -1.616191 -3.280239
0.000000 4.356929 -1.671842
0.000000 -2.688848 -3.827859
0.000000 2.096977 -4.367349
0.000000 4.617132 1.289597
0.000000 -3.002601 0.465039
0.000000 -0.591109 0.349206
0.000000 -4.969211 -1.270838
0.000000 1.717023 0.042564
0.000000 3.920702 4.706057
0.000000 -0.686865 2.805295
0.000000 1.995903 -4.897768
0.000000 -1.650331 3.646643
0.000000 -2.719904 -1.726440
0.000000 1.377626 0.547346
0.000000 2.735527 -3.412200
0.000000 4.559012 2.888150
0.000000 -0.057263 -1.394804
0.000000 1.208058 -1.431013
0.000000 2.523958 2.295950
0.000000 -4.058908 -3.198492
0.000000 3.981372 -2.390339
0.000000 4.227235 3.850033
0.000000 -0.602940 -2.969918
0.000000 -0.263421 1.781232
0.000000 1.949893 1.848692
0.000000 -2.327579 2.915659
0.000000 3.549851 -4.915473
0.000000 3.548879 -4.005799
0.000000 0.920782 0.163520
0.000000 3.337703 -1.257869
0.000000 3.799431 4.877888
0.000000 3.033838 4.438030
0.000000 -4.410647 -4.007336
0.000000 -0.759586 -2.665427
0.000000 2.124924 3.339643
0.000000 4.506579 0.755720
0.000000 -2.935694 -2.127244
0.000000 -1.178970 -2.563421
0.000000 -2.893073 -4.399787
0.000000 -2.282921 -3.786292
0.000000 -3.508670 2.570011
0.000000 -2.649223 -4.147072
0.000000 -4.808282 0.658603
0.000000 -1.773019 0.540307
0.000000 -2.116777 3.014097
0.000000 -4.715786 -2.241378
0.000000 -4.352290 4.226900
0.000000 -2.041460 0.036925
0.000000 2.855554 -1.563817
0.000000 -3.194240 4.839516
0.000000 2.296249 3.622877
0.000000 1.256045 -2.706099
0.000000 -3.843591 -3.842839
0.000000 2.211371 -1.640689
0.000000 2.653783 3.714858
0.000000 -3.583711 -4.391060
0.000000 1.611876 -2.761994
0.000000 2.839711 2.091980
0.000000 3.163503 -4.934710
0.000000 -2.281032 1.518813
0.000000 4.003474 4.432693
0.000000 -1.424369 3.908024
0.000000 3.334405 -3.294252
0.000000 1.422856 3.032480
0.000000 -3.124893 -3.102550
0.000000 -1.231731 4.778881
0.000000 -2.510183 0.115505
0.000000 4.029708 2.533848
0.000000 -2.445701 -1.859134
0.000000 0.237232 -3.497541
0.000000 -1.629369 -3.829285
0.000000 3.103390 -4.208165
0.000000 -3.632662 -4.356493
0.000000 3.104585 0.895736
0.000000 2.112361 -1.008444
0.000000 -2.488249 -2.730195
0.000000 -2.833849 -3.971708
0.000000 -1.293039 4.582562
0.000000 -3.277191 -2.734638
0.000000 1.427246 0.404505
0.000000 -0.248125 -0.485976
0.000000 -2.984602 -3.747546
0.000000 -0.916642 -3.174005
0.000000 4.640592 -3.938083
0.000000 -0.122148 1.011524
0.000000 3.607392 3.608042
0.000000 0.967212 3.698274
0.000000 2.547492 3.757524
0.000000 2.304490 -2.627089
0.000000 0.381600 -4.533605
0.000000 -0.093384 4.291464
0.000000 -1.952936 1.743564
0.000000 4.477295 -3.832719
0.000000 1.447913 -1.169420
0.000000 4.142955 1.016753
0.000000 0.797913 0.800534
0.000000 -4.236441 2.863239
0.000000 -2.225353 -0.181354
0.000000 4.426487 -1.098868
0.000000 -2.632190 4.567083
0.000000 0.916432 3.459940
0.000000 -4.318970 3.039772
0.000000 -1.735508 3.021404
0.000000 4.592942 4.619438
0.000000 0.100268 -0.214666
0.000000 3.327626 2.425923
0.000000 3.886926 -3.945681
0.000000 -4.625225 2.516545
0.000000 -3.374154 0.968703
0.000000 4.539515 4.859221
0.000000 -2.263461 0.876226
0.000000 -1.087817 -3.013076
0.000000 0.807731 -1.082887
0.000000 3.198528 2.258692
0.000000 2.746485 -1.479048
0.000000 4.626041 -4.741503
0.000000 1.026700 -2.581216
0.000000 3.859375 -4.413532
0.000000 0.907768 -0.865930
0.000000 1.662219 2.853993
0.000000 1.087809 3.119718
0.000000 2.910783 -3.117294
0.000000 1.895523 -0.382502
0.000000 -0.126534 3.932121
0.000000 1.600712 -4.202503
0.000000 -1.185165 2.476719
0.000000 1.805356 -0.842588
0.000000 2.467425 -0.729129
0.000000 0.891852 -2.922814
0.000000 -1.619855 3.988572
0.000000 -1.097455 -4.741073
0.000000 -1.353707 0.971687
0.000000 -1.584167 2.465432
0.000000 -4.147874 1.739657
0.000000 2.312960 -2.018381
0.000000 4.429829 -4.202936
0.000000 -1.438352 -1.931193
0.000000 -3.959686 -1.555617
0.000000 2.189802 1.089909
0.000000 0.372647 0.115100
0.000000 4.763262 -1.454442
0.000000 0.446899 3.510726
0.000000 1.298264 3.974866
0.000000 0.617002 -0.798649
0.000000 -0.484304 -3.022639
0.000000 -0.616363 -1.481294
0.000000 0.671688 -3.605974
0.000000 -4.920466 -3.632555
0.000000 0.489203 -1.798484
0.000000 -3.041122 4.490222
0.000000 -0.589700 0.901365
0.000000 2.411642 2.433145
0.000000 -1.693007 4.039660
0.000000 -4.867757 1.655900
0.000000 -1.346748 -4.261395
0.000000 2.513982 -2.853144
0.000000 3.498972 0.802514
0.000000 2.444363 2.887295
0.000000 4.584505 -0.629648
0.000000 2.475743 -2.169464
