3.599193 29.346073 0.000000
-1.449018 27.030203 0.000000
-3.076069 21.353104 0.000000
3.819430 22.999760 0.000000
-4.668783 29.314234 0.000000
2.469340 27.960501 0.000000
1.886289 21.790469 0.000000
0.676259 29.638976 0.000000
-4.756405 22.827442 0.000000
1.508966 29.324189 0.000000
4.185040 28.322935 0.000000
1.685916 29.972721 0.000000
-0.224674 25.417068 0.000000
1.179874 22.070473 0.000000
-1.230082 23.854693 0.000000
-0.235261 22.650730 0.000000
4.294255 27.226784 0.000000
4.840175 22.954758 0.000000
1.356229 25.546444 0.000000
-3.658628 23.302440 0.000000
-4.317335 20.443591 0.000000
-3.310209 27.407755 0.000000
4.723937 24.610209 0.000000
-0.776421 28.592894 0.000000
4.330744 25.195301 0.000000
-3.383396 25.798569 0.000000
-0.283736 27.268574 0.000000
-0.999115 25.907582 0.000000
-0.945523 24.107346 0.000000
-2.544706 21.130628 0.000000
-0.203029 25.950175 0.000000
-2.978230 29.033056 0.000000
4.989671 24.823417 0.000000
3.884597 28.177433 0.000000
2.447344 24.936071 0.000000
-4.050507 26.855907 0.000000
-1.759280 24.537168 0.000000
0.448567 22.951418 0.000000
-4.017845 20.562276 0.000000
3.317407 23.024991 0.000000
4.736077 24.655930 0.000000
1.058258 29.062571 0.000000
-4.258430 24.854663 0.000000
-0.929750 24.372992 0.000000
-4.784069 28.798336 0.000000
-2.034365 21.961559 0.000000
-0.201358 25.986776 0.000000
3.190481 22.800761 0.000000
-0.579688 27.515016 0.000000
3.491285 28.995745 0.000000
-4.645425 23.660492 0.000000
-4.833101 23.389289 0.000000
1.458749 21.426885 0.000000
1.582630 21.524130 0.000000
4.803578 27.015764 0.000000
1.201766 25.366725 0.000000
-1.195406 21.294826 0.000000
-4.674809 20.555721 0.000000
-3.051238 23.689356 0.000000
4.754403 24.472880 0.000000
-4.512407 25.437594 0.000000
-2.450712 22.184267 0.000000
-3.486671 27.650211 0.000000
3.515341 26.801684 0.000000
1.197949 28.837537 0.000000
0.514595 23.888630 0.000000
-2.010937 24.590213 0.000000
-1.729422 24.699650 0.000000
-1.971337 20.171433 0.000000
1.900743 28.686974 0.000000
-0.607283 20.507495 0.000000
-1.662403 28.450021 0.000000
-2.165936 28.205903 0.000000
2.910669 25.775403 0.000000
3.413253 23.087938 0.000000
-2.382178 27.380328 0.000000
1.692356 28.574218 0.000000
1.614201 24.573955 0.000000
-1.204230 23.433780 0.000000
1.736484 28.697025 0.000000
-4.457638 20.395683 0.000000
0.676968 27.567534 0.000000
3.014971 24.575237 0.000000
-1.318413 21.655330 0.000000
2.725509 24.609659 0.000000
-4.760170 28.477704 0.000000
-3.388797 25.719623 0.000000
-3.912917 27.911157 0.000000
-1.964092 21.953828 0.000000
3.393391 29.921600 0.000000
-2.785634 27.651744 0.000000
-4.099382 25.878168 0.000000
4.784162 28.003124 0.000000
3.428213 22.770784 0.000000
3.387855 24.903935 0.000000
-3.438193 29.203877 0.000000
2.750724 29.873920 0.000000
2.689313 25.610410 0.000000
4.546177 25.786613 0.000000
-3.613308 21.788572 0.000000
0.707632 25.269777 0.000000
4.160527 22.941118 0.000000
-4.206452 25.884923 0.000000
2.933921 28.371746 0.000000
-2.967061 20.332052 0.000000
0.431538 22.489421 0.000000
0.303552 29.825040 0.000000
-2.953992 24.049352 0.000000
-3.871151 26.577847 0.000000
-0.777475 20.383530 0.000000
-1.124559 23.097114 0.000000
2.600023 21.902745 0.000000
2.896062 28.698184 0.000000
1.070819 22.776434 0.000000
-2.916622 24.184693 0.000000
-0.326279 21.518490 0.000000
-0.565239 22.642197 0.000000
2.399633 26.175300 0.000000
2.209137 28.451736 0.000000
4.896182 29.204711 0.000000
4.048217 20.727813 0.000000
0.041327 20.831842 0.000000
0.196420 25.930235 0.000000
-2.075060 20.850565 0.000000
1.652892 27.212797 0.000000
-3.024041 24.468714 0.000000
-1.375476 28.015555 0.000000
4.228559 28.759288 0.000000
-0.299812 27.575043 0.000000
3.574303 23.182026 0.000000
2.040143 29.162676 0.000000
-1.853837 29.947428 0.000000
-3.681280 27.264920 0.000000
-3.767602 23.261661 0.000000
3.413851 28.238773 0.000000
-2.689076 28.279585 0.000000
1.901438 29.766099 0.000000
0.277724 23.194061 0.000000
-2.374993 28.826860 0.000000
1.486763 24.932104 0.000000
-3.108307 21.549551 0.000000
2.668393 24.143004 0.000000
-1.820320 20.065041 0.000000
-2.874119 21.616533 0.000000
0.427391 23.792279 0.000000
-0.315189 25.939283 0.000000
4.086957 24.698016 0.000000
2.505051 28.920628 0.000000
-0.504717 22.680806 0.000000
-0.267932 23.838674 0.000000
4.455877 25.871303 0.000000
-2.125481 27.775422 0.000000
2.850332 27.463809 0.000000
-3.813514 28.042061 0.000000
3.920840 24.159051 0.000000
-2.399220 23.303707 0.000000
0.421018 21.409165 0.000000
-3.105160 25.957417 0.000000
2.546262 21.088498 0.000000
-4.167269 24.145469 0.000000
-0.605291 26.265147 0.000000
0.571709 29.428625 0.000000
1.323258 21.521048 0.000000
3.146290 24.209272 0.000000
3.229855 27.316759 0.000000
-0.977327 25.026827 0.000000
0.855156 23.948788 0.000000
2.003621 23.248986 0.000000
-1.347124 22.584703 0.000000
-2.817977 27.466272 0.000000
2.290590 22.764272 0.000000
-2.913669 27.458826 0.000000
4.939358 22.114087 0.000000
-3.509863 21.982689 0.000000
2.352631 21.983047 0.000000
1.200373 27.962695 0.000000
3.966135 24.072822 0.000000
-2.268422 27.838904 0.000000
-2.277807 23.641826 0.000000
2.725111 20.384415 0.000000
4.885640 27.334138 0.000000
-2.744809 29.180073 0.000000
4.090128 22.042886 0.000000
1.363874 29.794716 0.000000
-1.307277 25.527045 0.000000
-3.059446 29.770961 0.000000
-1.988049 24.939330 0.000000
-2.783314 25.789144 0.000000
-1.345899 26.594164 0.000000
-0.817108 22.799608 0.000000
3.226202 26.274238 0.000000
-1.788313 26.192391 0.000000
-4.396485 26.330084 0.000000
-3.163243 20.065735 0.000000
-2.772420 28.991177 0.000000
1.671948 20.774332 0.000000
-1.937328 24.258534 0.000000
1.918375 25.975335 0.000000
-0.441755 29.333683 0.000000
4.737538 23.218706 0.000000
-2.146630 29.201692 0.000000
2.668884 25.367700 0.000000
4.438400 23.631637 0.000000
-4.682332 25.889551 0.000000
3.178978 20.470653 0.000000
4.483548 20.379753 0.000000
1.964817 27.717659 0.000000
-0.802235 29.094373 0.000000
-4.907449 29.394713 0.000000
-2.863391 25.036932 0.000000
0.005051 21.177817 0.000000
4.082688 29.582312 0.000000
-4.918459 29.870697 0.000000
4.237877 28.121521 0.000000
-2.387024 25.477646 0.000000
1.659884 21.157736 0.000000
3.280461 29.324356 0.000000
2.144709 21.417466 0.000000
-2.838007 28.815695 0.000000
-1.356347 26.097127 0.000000
-2.116552 22.760552 0.000000
-3.085355 23.495006 0.000000
1.352431 23.587708 0.000000
0.956756 23.520197 0.000000
-0.078183 26.483046 0.000000
-4.183994 23.549414 0.000000
-1.788027 21.379766 0.000000
-1.276524 27.144469 0.000000
-3.005947 24.558410 0.000000
4.224788 25.218220 0.000000
0.856775 26.241275 0.000000
-1.242905 23.953930 0.000000
0.329032 28.028144 0.000000
-3.309801 22.867942 0.000000
-1.022437 27.744369 0.000000
-3.238612 20.648770 0.000000
0.195434 27.169646 0.000000
2.296625 24.835708 0.000000
-0.906317 29.981120 0.000000
-2.425336 22.730100 0.000000
0.095111 29.638996 0.000000
4.308241 29.300894 0.000000
2.026289 24.684135 0.000000
3.486348 25.707343 0.000000
-1.705561 22.145090 0.000000
-2.445216 28.295534 0.000000
3.245984 21.037423 0.000000
1.378647 23.156895 0.000000
3.976624 29.583851 0.000000
3.854809 24.184549 0.000000
-1.791779 25.645594 0.000000
-1.121819 22.269756 0.000000
-2.400439 22.537989 0.000000
4.049059 28.593338 0.000000
0.767836 22.259959 0.000000
1.683054 28.757822 0.000000
4.672193 24.737333 0.000000
-1.358785 22.801276 0.000000
3.415541 21.375084 0.000000
2.889790 29.064154 0.000000
4.438203 22.542827 0.000000
4.271564 25.344855 0.000000
2.611162 20.599257 0.000000
3.594044 28.442215 0.000000
0.000000 -2.979901 1.532749
0.000000 -0.706122 0.202489
0.000000 -1.627162 -2.696359
0.000000 2.568617 3.741430
0.000000 2.343385 -1.866212
0.000000 -1.917280 -0.818743
0.000000 -2.205489 -0.473875
0.000000 4.356143 3.110567
0.000000 0.998973 0.214198
0.000000 -0.737104 -1.798593
0.000000 -0.737562 -1.732145
0.000000 -2.270628 4.663037
0.000000 -2.151453 -0.258736
0.000000 -3.789292 3.360814
0.000000 1.995865 -1.010471
0.000000 3.798253 4.416977
0.000000 -4.082896 4.509771
0.000000 1.849689 3.530620
0.000000 0.951461 -2.736820
0.000000 -4.010350 -3.958290
0.000000 4.768326 -2.645554
0.000000 -4.645086 0.070490
0.000000 0.008430 1.208159
0.000000 -0.787610 -2.472549
0.000000 -0.573044 1.802309
0.000000 3.858723 3.616948
0.000000 2.586454 3.803584
0.000000 -0.355644 -4.321955
0.000000 -1.425342 0.564543
0.000000 4.179668 -2.928386
0.000000 0.887713 -2.020138
0.000000 0.684963 2.050607
0.000000 0.408933 4.255009
0.000000 -1.306949 -2.052110
0.000000 0.299632 4.500918
0.000000 -4.850313 1.053090
0.000000 -0.082839 -0.465589
0.000000 2.009664 -1.068195
0.000000 -1.199115 -2.529713
0.000000 -1.941626 -1.551357
0.000000 -2.032711 0.695955
0.000000 -4.823856 -0.684067
0.000000 3.288633 -3.848141
0.000000 -4.102642 -0.934035
0.000000 1.800084 -2.682716
0.000000 -1.382636 -1.949460
0.000000 -2.750991 2.336454
0.000000 2.843561 1.578831
0.000000 0.548047 -2.048797
0.000000 -3.281363 2.138936
0.000000 1.424638 -2.075375
0.000000 -2.843612 -0.824060
0.000000 -4.744681 -3.302649
0.000000 -1.317681 -4.111655
0.000000 2.483617 -0.783246
0.000000 3.017643 1.997733
0.000000 -4.900155 0.259545
0.000000 -4.567123 -0.184726
0.000000 1.811305 0.814520
0.000000 -3.246659 1.526355
0.000000 4.547998 -1.694282
0.000000 2.701103 -2.885797
0.000000 -1.983104 2.193651
0.000000 0.237900 -2.937954
0.000000 -1.568497 -3.058909
0.000000 -3.217944 -4.671349
0.000000 2.296474 4.787813
0.000000 1.628825 3.417733
0.000000 1.993864 -2.349210
0.000000 -4.408000 -4.714335
0.000000 2.586478 4.830460
0.000000 -4.310222 -0.742887
0.000000 3.635832 -4.431987
0.000000 -2.763358 -4.525886
0.000000 2.648310 -3.224186
0.000000 4.206529 -3.533815
0.000000 3.892568 3.530394
0.000000 -3.185423 1.346255
0.000000 -4.078120 4.994192
0.000000 4.759751 3.729010
0.000000 1.547037 1.395163
0.000000 1.954735 4.633086
0.000000 -1.532726 1.701403
0.000000 -1.668059 -4.154133
0.000000 -0.745420 -4.925955
0.000000 0.827753 -0.035572
0.000000 1.860698 -2.454681
0.000000 4.244300 1.540725
0.000000 -4.828755 4.725167
0.000000 -4.337303 -3.583328
0.000000 0.248722 -2.829487
0.000000 -2.419662 -3.676693
0.000000 -0.342779 2.131406
0.000000 3.702104 3.563389
0.000000 -3.387563 -4.577173
0.000000 4.739286 2.338457
0.000000 -3.998552 -0.246252
0.000000 4.845834 -2.026229
0.000000 0.215878 3.982517
0.000000 1.156335 -0.414836
0.000000 1.298439 -3.115415
0.000000 -2.499278 -0.410429
0.000000 4.768189 2.582924
0.000000 -3.709280 -2.673479
0.000000 -4.892125 -2.341385
0.000000 -3.157716 -3.651039
0.000000 1.320617 -4.440313
0.000000 -4.478145 -2.042384
0.000000 1.220399 2.032124
0.000000 3.735923 -3.953535
0.000000 -0.838051 0.062662
0.000000 3.404284 2.955226
0.000000 2.860428 -0.034848
0.000000 -4.888513 0.895639
0.000000 -4.603425 0.128990
0.000000 -0.662290 2.611761
0.000000 -1.807848 3.996402
0.000000 2.819306 -1.165638
0.000000 2.158189 1.243070
0.000000 3.629024 2.811566
0.000000 -3.601489 -0.033805
0.000000 0.056110 3.738508
0.000000 -2.462140 2.088071
0.000000 -0.538215 0.799025
0.000000 4.699743 0.526311
0.000000 -4.493340 -0.749522
0.000000 -1.505255 -1.849196
0.000000 4.875988 0.576230
0.000000 0.015095 -4.691659
0.000000 -2.499918 4.938615
0.000000 0.809843 -1.064943
0.000000 -1.430443 4.706442
0.000000 -0.931877 4.045449
0.000000 0.287985 3.611683
0.000000 -0.297537 1.086219
0.000000 -0.884001 2.518051
0.000000 0.333721 -4.906329
0.000000 4.184655 -1.392849
0.000000 -1.146565 3.306352
0.000000 -1.499374 1.950290
0.000000 -4.691527 4.487749
0.000000 -0.817576 -4.274491
0.000000 -1.540869 0.798954
0.000000 -4.534356 4.667130
0.000000 2.790194 -2.053721
0.000000 -2.124071 4.019961
0.000000 2.249304 -3.538736
0.000000 -3.232193 -2.090350
0.000000 -3.604613 -0.241612
0.000000 -2.733357 -4.667789
0.000000 -3.857156 2.925400
0.000000 2.959949 -2.023656
0.000000 -4.975894 -4.354327
0.000000 4.419400 2.523108
0.000000 1.170409 1.711843
0.000000 3.561706 4.086359
0.000000 -1.213695 3.672778
0.000000 -2.538087 -3.195069
0.000000 0.209025 3.931023
0.000000 -2.706415 -0.528603
0.000000 -4.423648 2.468661
0.000000 4.853171 -3.265763
0.000000 -1.289978 -2.470821
0.000000 -0.843243 -0.040800
0.000000 0.227445 -3.948407
0.000000 -2.076970 -0.097216
0.000000 -0.898000 2.375698
0.000000 -1.666173 4.172916
0.000000 -3.447336 -1.105879
0.000000 -3.295779 -1.159060
0.000000 -3.585648 0.296020
0.000000 3.748231 -4.383703
0.000000 -1.669527 -2.933763
0.000000 -1.251739 0.339807
0.000000 4.427640 -0.970002
0.000000 0.529445 1.580421
0.000000 -1.847930 -0.375962
0.000000 -4.655030 -1.012878
0.000000 3.785758 -4.915121
0.000000 4.263204 2.046958
0.000000 4.069044 -3.042027
0.000000 3.535224 -3.326311
0.000000 2.754789 0.144362
0.000000 4.875524 -0.227375
0.000000 1.762821 -0.992520
0.000000 -4.064043 -0.240979
0.000000 2.165572 2.025259
0.000000 2.615249 4.950419
0.000000 -2.489583 -0.462501
0.000000 -4.110647 -2.833336
0.000000 -4.670797 0.594385
0.000000 -4.594468 -4.819928
0.000000 0.922962 -2.718875
0.000000 -2.278952 -3.553276
0.000000 3.128396 4.593079
0.000000 4.766599 3.589719
0.000000 1.589471 -0.649330
0.000000 1.092847 -1.003080
0.000000 -3.588705 0.553827
0.000000 -1.487088 4.390894
0.000000 -3.036142 0.853488
0.000000 -0.009524 -3.324975
0.000000 1.780271 -3.694227
0.000000 1.998584 2.515733
0.000000 1.865981 1.686647
0.000000 1.975050 -1.117229
0.000000 0.200332 2.671893
0.000000 -1.166074 -2.092666
0.000000 0.273419 -1.606876
0.000000 2.231843 2.723396
0.000000 4.798579 4.422139
0.000000 -1.318216 1.366071
0.000000 2.187633 2.725164
0.000000 4.466301 -1.125458
0.000000 -3.520539 2.070780
0.000000 3.702423 -2.193320
0.000000 0.482100 2.313267
0.000000 -2.516564 -2.403921
0.000000 -0.115158 -4.874929
0.000000 -2.880357 -0.315412
0.000000 -2.899472 3.722579
0.000000 -4.554569 0.820124
0.000000 -0.929649 -3.636252
0.000000 -0.946954 -2.394070
0.000000 -1.497189 2.219214
0.000000 4.720886 0.040395
0.000000 3.904111 3.081127
0.000000 1.074510 0.128981
0.000000 -1.482439 -1.120467
0.000000 -4.751398 3.693345
0.000000 3.485862 -4.475212
0.000000 -4.539188 -4.001024
0.000000 -2.369372 1.034515
0.000000 -0.011616 4.582712
0.000000 3.088779 1.571669
0.000000 -3.577063 1.069992
0.000000 -0.464289 -0.127633
0.000000 4.812217 3.416798
0.000000 -4.684733 1.249393
0.000000 -3.977388 0.461492
0.000000 4.865986 0.603210
0.000000 4.478380 -1.308865
0.000000 -0.186563 -2.903681
0.000000 -3.110101 -2.568335
0.000000 -4.092357 -2.763770
0.000000 -0.272242 0.167086
0.000000 -4.326825 -2.638485
0.000000 -4.522935 0.189361
0.000000 -4.522393 1.744707
0.000000 1.828712 -2.744052
0.000000 -0.629707 3.083174
0.000000 -1.818069 -2.692719
0.000000 -0.183010 -1.020837
0.000000 2.799979 0.946154
0.000000 3.126670 -4.237512
0.000000 -4.785663 -4.894772
0.000000 -1.610257 0.465796
0.000000 -4.477327 0.480734
0.000000 4.564404 -4.611287
0.000000 2.468189 -4.237911
0.000000 -3.670140 2.454258
0.000000 -0.564215 -3.356603
0.000000 -4.580563 -0.793091
0.000000 1.960136 3.294465
0.000000 0.051541 0.974593
0.000000 0.952316 2.827634
0.000000 -1.013149 3.698506
0.000000 -4.747700 2.495868
0.000000 -2.479977 2.494831
0.000000 -0.657857 1.101710
0.000000 1.589097 -3.670494
0.000000 4.439574 2.372396
0.000000 4.552936 1.659527
0.000000 -4.880243 2.971889
0.000000 1.063337 3.003832
0.000000 -0.474587 2.007927
0.000000 -1.518784 -0.036951
0.000000 -4.307387 3.975363
0.000000 -2.622461 4.012353
0.000000 -4.729434 -3.428512
0.000000 -0.594246 0.763893
0.000000 -1.652086 -0.550614
0.000000 -4.098052 -4.243559
0.000000 3.805260 -4.703016
0.000000 0.367244 -4.363949
0.000000 -2.510039 -3.492685
0.000000 -0.453268 -0.630217
0.000000 4.206186 -0.025297
0.000000 2.877237 2.962694
0.000000 -2.528819 2.518861
0.000000 -4.938129 3.825376
0.000000 -0.738859 -0.422254
0.000000 1.205522 -0.521837
0.000000 4.344638 2.538496
0.000000 -3.128948 0.935794
0.000000 4.424136 -0.843296
0.000000 4.400064 -4.455664
0.000000 -0.071211 3.394592
0.000000 4.526111 -2.860799
0.000000 4.574876 -2.890983
0.000000 1.876007 -0.952834
0.000000 -2.407515 -2.180265
0.000000 1.112991 -2.563881
0.000000 -2.054303 -0.664227
0.000000 4.649387 -3.342640
0.000000 -2.723622 -4.506775
0.000000 0.321866 -0.015044
0.000000 -0.067579 1.977564
0.000000 -2.151894 0.429096
0.000000 4.613935 0.916305
0.000000 3.074580 2.760781
0.000000 1.722577 2.591115
0.000000 -1.357773 1.570896
0.000000 -4.988911 4.764344
0.000000 3.136429 -0.450666
0.000000 2.608654 4.696394
0.000000 1.083193 0.567588
0.000000 -2.182727 -2.182109
0.000000 3.677472 -4.184534
0.000000 2.786951 -1.916799
0.000000 -3.071184 -4.216502
0.000000 -2.995463 -4.787788
0.000000 2.119764 -3.591047
0.000000 1.638309 1.173182
0.000000 0.001526 4.581293
0.000000 -1.056294 -0.045173
0.000000 3.137669 0.709065
0.000000 -3.980556 -2.342336
0.000000 2.284181 -1.542314
0.000000 -2.006970 0.590498
0.000000 -4.851166 1.733682
0.000000 2.663870 0.520382
0.000000 -1.544748 1.150286
0.000000 -2.288682 -1.731703
0.000000 -0.546594 -0.223865
0.000000 -0.972560 -0.257663
0.000000 1.966092 4.076461
0.000000 -1.299376 4.803390
0.000000 1.758284 -2.286649
0.000000 1.404462 4.536802
0.000000 4.550607 -4.664656
0.000000 0.706924 -1.188232
0.000000 -1.621789 -1.267330
0.000000 -1.148296 1.569176
0.000000 2.414258 -2.425615
0.000000 3.888705 -0.661322
0.000000 3.740769 -4.711238
0.000000 -0.675830 -4.096551
0.000000 -3.209529 4.224715
0.000000 -3.653079 3.237757
0.000000 0.768791 2.128363
0.000000 4.696680 -4.301345
0.000000 -2.137628 -0.999341
0.000000 -4.929658 0.889271
0.000000 -2.015564 1.022599
0.000000 1.311072 0.742728
0.000000 3.888557 -3.520857
0.000000 -2.376624 -1.706307
0.000000 -2.999627 -4.674918
0.000000 0.141668 1.114581
0.000000 -3.852546 -1.223746
0.000000 1.924482 3.305273
0.000000 3.266980 -2.282220
0.000000 1.864878 -0.687887
0.000000 -1.025505 4.716463
0.000000 -0.150329 -4.056751
0.000000 3.034170 -3.083155
0.000000 -1.354383 4.880077
0.000000 4.027329 -3.982434
0.000000 0.949018 -1.638812
0.000000 4.478960 -4.797420
0.000000 -3.480660 -1.454976
0.000000 4.787227 4.800726
0.000000 -2.791527 -4.273140
0.000000 3.796797 1.414003
0.000000 -1.963905 2.889660
0.000000 2.669337 1.454216
0.000000 0.886545 2.477037
0.000000 4.787285 -4.880004
0.000000 1.990818 1.003741
0.000000 -3.421426 2.396046
0.000000 -0.461347 -4.225962
0.000000 0.180346 2.819449
0.000000 4.950162 -1.942703
0.000000 3.191441 -3.920047
0.000000 2.018257 3.861067
0.000000 -3.371036 3.848033
0.000000 -1.781263 1.208094
0.000000 -0.349407 2.892177
0.000000 -4.818129 2.385823
0.000000 3.616425 -3.384191
0.000000 1.030109 0.270097
0.000000 1.731392 -1.228693
0.000000 -1.049422 -0.323289
0.000000 3.389333 -0.728241
0.000000 2.923030 -0.028391
0.000000 -0.637233 2.672978
0.000000 3.406390 2.439751
0.000000 0.981111 -4.564841
0.000000 0.790893 -2.134588
0.000000 -2.166277 -3.001949
0.000000 -4.852350 -4.394290
0.000000 0.685298 1.026362
0.000000 4.827829 3.353017
0.000000 -4.345773 0.725968
0.000000 -0.950422 -4.418710
0.000000 0.460065 -2.557300
0.000000 2.772013 3.061607
0.000000 -4.090929 3.811756
0.000000 4.626099 0.589385
0.000000 0.940396 -3.289853
0.000000 1.204342 -3.009741
0.000000 -3.660226 -1.091437
0.000000 -1.184184 -0.222736
0.000000 -1.025673 1.814367
0.000000 1.045697 0.589213
0.000000 -0.078961 -0.170464
0.000000 1.103583 3.185868
0.000000 4.275074 -1.804872
0.000000 0.954634 2.549386
0.000000 -1.533127 -4.643669
0.000000 -0.790522 -1.449695
0.000000 -1.305827 0.081789
0.000000 3.157795 1.033637
0.000000 0.581959 1.154415
0.000000 2.868261 1.665829
0.000000 -3.791181 -4.812403
0.000000 -3.016135 -3.100296
0.000000 -0.381211 0.932588
0.000000 4.280591 -2.713973
0.000000 3.568187 4.385262
0.000000 -3.197206 3.717372
0.000000 -0.235917 -4.647285
0.000000 3.135605 1.481555
0.000000 -1.965765 -0.711569
0.000000 3.273981 -0.820568
0.000000 1.513779 1.925394
0.000000 3.325359 -2.920158
0.000000 -0.168488 0.350266
0.000000 0.329217 4.301012
0.000000 -3.836436 4.952775
0.000000 4.983847 2.337772
0.000000 -2.163451 -1.674995
0.000000 -4.800879 -0.241144
0.000000 4.058511 1.986477
0.000000 -2.714292 -4.567007
0.000000 4.748815 -4.278673
0.000000 2.857632 -4.610546
0.000000 1.426511 2.269371
0.000000 -0.531666 4.410542
0.000000 -4.085425 -2.431015
0.000000 3.595838 -2.422972
0.000000 2.439295 0.385554
0.000000 3.264044 3.225863
0.000000 -0.781254 2.231484
0.000000 3.404121 -2.739485
0.000000 -4.131371 -2.248274
0.000000 0.929861 2.736056
0.000000 -1.233616 3.381195
0.000000 -3.107330 0.248498
0.000000 -3.124327 -2.142943
0.000000 1.279985 1.534356
0.000000 0.728743 -4.519429
0.000000 2.733816 4.990888
0.000000 -4.642599 3.813697
0.000000 -0.367935 -0.768482
0.000000 -1.703264 4.948212
0.000000 0.327549 0.430387
0.000000 -4.586279 4.216509
0.000000 -0.579855 -4.204247
0.000000 -3.334915 -4.255581
0.000000 -1.065011 -1.313663
0.000000 0.203944 0.500068
0.000000 1.840536 -2.796047
0.000000 1.172676 0.599104
0.000000 -4.759616 3.655962
0.000000 -0.395196 3.688982
0.000000 4.569936 2.462384
0.000000 2.173354 3.199187
0.000000 -1.624678 3.188134
0.000000 -0.152292 -2.468912
0.000000 -3.864155 4.443963
0.000000 -3.271305 3.764474
0.000000 0.586107 2.749725
0.000000 -1.780138 4.124076
0.000000 -1.090492 -3.758250
0.000000 -1.141125 0.426402
0.000000 -2.405018 2.980223
0.000000 -2.057003 0.693835
0.000000 -2.901895 -3.283978
0.000000 -4.031171 3.719633
0.000000 1.472109 -3.867086
0.000000 -0.576998 -3.374800
0.000000 -4.918470 0.710360
0.000000 3.537413 2.705957
0.000000 1.193599 2.915615
0.000000 -3.443945 4.449547
0.000000 4.812924 -2.460929
0.000000 -2.930598 -1.608000
0.000000 -1.650889 1.378407
0.000000 -2.346701 1.097454
0.000000 4.310742 1.964471
0.000000 -4.741034 -0.377509
0.000000 -1.723747 -1.369653
0.000000 -4.617239 4.873235
0.000000 4.189626 -0.675012
0.000000 -0.178568 3.833848
0.000000 0.825702 -4.027184
0.000000 2.153678 2.969634
0.000000 -4.402028 4.018269
0.000000 -2.893712 3.303893
0.000000 4.673640 -2.917178
0.000000 4.217319 -4.954572
0.000000 -4.763021 3.616586
0.000000 -3.221619 -2.359128
0.000000 1.008609 1.551671
0.000000 -3.120450 2.906615
0.000000 -0.323019 -1.336296
0.000000 3.300370 -1.993962
0.000000 3.338321 -0.676436
0.000000 2.128687 -3.455856
0.000000 -4.711028 2.521464
0.000000 4.815808 1.442047
0.000000 -1.992002 -1.166998
0.000000 4.102901 3.846560
0.000000 -1.275177 -2.105582
0.000000 -3.943981 -4.585863
0.000000 1.830716 -4.920039
0.000000 -3.583842 4.940791
0.000000 3.311686 -1.393218
0.000000 2.448777 -0.380171
0.000000 -4.101835 0.647858
0.000000 3.146689 -2.985543
0.000000 3.746093 -3.055680
0.000000 3.412927 -3.215547
0.000000 1.239129 2.252908
0.000000 0.696176 -2.734729
0.000000 3.365220 2.187311
0.000000 2.249531 1.174163
0.000000 -0.957647 1.844364
0.000000 3.436463 -1.345289
0.000000 -2.553161 2.855875
0.000000 -3.240966 -0.444416
0.000000 1.796609 -4.403928
0.000000 2.975740 0.901483
0.000000 -0.235054 -0.059101
0.000000 -2.339891 -1.756482
0.000000 -3.521260 1.917298
0.000000 -2.058206 -3.087546
0.000000 3.372444 4.255533
0.000000 3.321776 1.590685
0.000000 -1.499012 2.224228
0.000000 3.615340 3.337883
0.000000 -2.661193 3.534988
0.000000 2.225650 2.713482
0.000000 -3.427075 3.883120
0.000000 0.608953 1.313188
0.000000 1.345685 3.976132
0.000000 -2.331192 0.790861
0.000000 -4.776153 2.604851
0.000000 3.185341 -1.544682
0.000000 4.325254 4.162510
0.000000 -3.944965 -4.629939
0.000000 -0.426280 -2.548455
0.000000 0.364071 -2.039781
0.000000 4.259797 2.997062
0.000000 1.048500 0.736415
0.000000 3.142027 4.621985
0.000000 4.180510 -4.289034
0.000000 -4.525818 4.462601
0.000000 3.848001 -0.244882
0.000000 -0.535925 -3.460786
0.000000 1.078537 2.707969
0.000000 4.722638 2.696320
0.000000 0.002297 -4.855349
0.000000 -2.881872 4.349310
0.000000 -2.017135 0.426105
0.000000 -3.444312 0.323412
0.000000 3.036230 -1.788521
0.000000 -4.831088 4.647467
0.000000 -2.569229 3.900932
0.000000 -3.415713 0.087035
0.000000 1.110507 1.854891
0.000000 -2.866643 0.052780
0.000000 1.162028 -2.427158
0.000000 -4.257106 4.015978
0.000000 -1.516116 -4.476123
0.000000 4.801781 -0.456720
0.000000 4.783555 1.066733
0.000000 3.694196 -3.690369
0.000000 0.091890 1.387873
0.000000 -3.216649 0.986914
0.000000 1.193769 2.551348
0.000000 2.960316 -2.168622
0.000000 3.621625 -2.914540
0.000000 -1.219596 4.692877
0.000000 3.146049 4.237472
0.000000 -0.218521 -4.361573
0.000000 -2.691497 3.586932
0.000000 0.859657 4.714984
0.000000 -4.306376 4.332485
0.000000 4.359364 -3.588153
0.000000 -4.926125 4.813487
0.000000 -1.698078 0.792890
0.000000 3.998023 0.782570
0.000000 -0.988092 0.154050
0.000000 2.492650 4.255639
0.000000 0.476924 -1.477777
0.000000 1.505712 2.293100
0.000000 -3.686726 2.542662
0.000000 -4.337266 -2.572138
0.000000 -3.120883 -2.011732
0.000000 2.913415 4.462367
0.000000 4.637699 -2.083517
0.000000 1.487350 2.580852
0.000000 -3.100957 -1.992210
0.000000 2.173365 2.877079
0.000000 -2.157741 -2.349588
0.000000 3.712126 0.778613
0.000000 3.926111 0.250081
0.000000 2.840521 3.994626
0.000000 -2.789662 3.313081
0.000000 -1.190596 -2.841741
0.000000 -0.874112 -2.902625
0.000000 0.364840 -2.366360
0.000000 4.409306 0.749506
0.000000 0.582218 -4.740610
0.000000 0.965204 -2.293277
0.000000 1.373693 4.344782
0.000000 4.401236 3.694423
0.000000 4.816043 0.288056
0.000000 -1.061601 4.741335
0.000000 1.360574 2.131807
0.000000 2.268264 -4.809923
0.000000 0.155296 -3.676294
0.000000 -0.583589 -1.004093
0.000000 4.979062 -0.234383
0.000000 1.236600 -1.421286
0.000000 2.384465 -4.541694
0.000000 0.088409 -0.921174
0.000000 -4.137683 2.699542
0.000000 -2.491091 4.126671
0.000000 -0.799215 0.719315
0.000000 -1.612401 -3.045943
0.000000 -1.573653 -0.239873
0.000000 -1.274845 0.910015
0.000000 0.667587 3.124518
0.000000 2.514924 -2.290335
0.000000 -4.905382 -0.947757
0.000000 -3.883957 2.027095
0.000000 -2.292972 -4.236512
0.000000 3.707400 3.639051
0.000000 -3.364802 4.242258
0.000000 4.202161 -0.221237
0.000000 -4.385057 -3.397631
0.000000 -4.997241 3.514705
0.000000 1.052999 3.920784
0.000000 -2.530445 4.838998
0.000000 -4.534276 -1.594065
0.000000 1.588633 1.315018
0.000000 -2.783017 3.265504
0.000000 -0.034265 -4.386073
0.000000 3.590180 4.329054
0.000000 4.304615 -4.440513
0.000000 2.900025 2.924575
0.000000 1.768523 -1.291381
0.000000 1.232629 0.790961
0.000000 3.085653 -3.490057
0.000000 3.040206 3.728723
0.000000 1.745514 -1.402740
0.000000 4.031965 4.253595
0.000000 -4.404327 -0.566828
0.000000 -4.575422 -0.212434
0.000000 2.537940 2.581453
0.000000 1.402108 -1.158404
0.000000 3.557174 -2.187880
0.000000 -4.831589 4.813857
0.000000 -1.573499 -3.702981
0.000000 -3.381642 -3.320653
0.000000 -4.377436 -3.825097
0.000000 -1.242944 4.557578
0.000000 3.338237 -2.786766
0.000000 -0.121515 3.817319
0.000000 2.938642 -4.588095
0.000000 -0.142221 -1.675708
0.000000 -0.393068 -4.041507
0.000000 -4.583540 -4.797431
0.000000 -4.852549 1.064451
0.000000 4.790111 3.470458
0.000000 3.168016 1.087581
0.000000 -3.961969 4.972124
0.000000 -4.753764 -3.695852
0.000000 0.372502 -1.873437
0.000000 -3.617195 3.694564
0.000000 0.756176 -1.848571
0.000000 0.088403 4.159656
0.000000 2.670478 4.765876
0.000000 -4.540830 -1.842919
0.000000 2.816054 4.834790
0.000000 1.781312 -1.598370
0.000000 -0.168749 3.912787
0.000000 1.254046 -0.716775
0.000000 3.929631 2.865698
0.000000 -2.176751 -4.962050
0.000000 4.678106 -4.329016
0.000000 -4.609728 -2.118642
0.000000 -0.429221 -4.037602
0.000000 2.532345 3.145528
0.000000 1.110999 -4.751179
0.000000 3.622515 -2.920126
0.000000 2.919432 -2.800690
0.000000 -3.499503 -2.247038
0.000000 -0.897895 3.532957
0.000000 -0.890451 -4.000071
0.000000 2.233918 4.789267
0.000000 1.241364 -0.721222
0.000000 0.381980 -4.521133
0.000000 -4.975309 -1.484711
0.000000 2.428833 3.640442
0.000000 0.092615 0.972683
0.000000 1.431445 4.368899
0.000000 -1.464343 -1.104496
0.000000 -3.967567 -4.891816
0.000000 1.698720 0.987461
0.000000 4.424671 3.620485
0.000000 4.784972 -0.712351
0.000000 1.359579 -1.374590
0.000000 0.995701 2.820919
0.000000 -2.098865 1.435001
0.000000 1.719584 -1.572366
0.000000 -4.653260 2.722730
0.000000 -2.058504 2.829790
0.000000 0.891773 -3.258905
0.000000 -4.945901 -4.600708
0.000000 0.768145 2.482621
0.000000 0.235218 1.078140
0.000000 0.828748 1.438272
0.000000 -4.285898 3.329578
0.000000 -4.966669 0.504162
0.000000 3.088852 -1.608340
0.000000 -0.862621 -2.212119
0.000000 -4.482632 -2.407645
0.000000 1.900690 0.213194
0.000000 -0.792884 -0.084016
0.000000 -2.743541 0.662647
0.000000 2.547038 -2.678903
0.000000 -0.157303 -1.833238
0.000000 4.567121 -0.472606
0.000000 0.034254 0.977791
0.000000 -0.707737 2.449613
0.000000 -3.104029 -4.617693
0.000000 -3.679180 -2.093001
0.000000 1.121674 2.128572
0.000000 3.667771 0.106481
0.000000 -1.872564 4.879939
0.000000 -0.494718 3.478375
0.000000 -2.420952 4.748837
0.000000 4.834035 4.644746
0.000000 3.996111 1.137714
0.000000 -2.983081 -1.129987
0.000000 0.476727 -2.343044
0.000000 -3.514675 1.617446
0.000000 -2.520317 -1.088211
0.000000 4.888315 -2.985107
0.000000 -1.051782 4.579835
0.000000 -1.460943 -4.486455
0.000000 -0.997800 -4.352002
0.000000 3.022464 -3.876616
0.000000 3.855900 2.256741
0.000000 1.959416 0.861276
0.000000 3.901184 -3.328505
0.000000 -4.364873 -4.385499
0.000000 3.304711 -2.464193
0.000000 4.233491 1.885252
0.000000 -3.206632 -3.411484
0.000000 -3.904433 -4.032726
0.000000 2.564411 -4.197624
0.000000 -1.525575 -3.861658
0.000000 4.912990 1.733541
0.000000 1.524287 -2.010591
0.000000 3.841497 -0.881927
0.000000 -4.100299 -2.506007
0.000000 1.596284 3.230913
0.000000 1.914646 4.954516
0.000000 0.137633 4.704203
0.000000 -0.943617 -1.172240
0.000000 2.420088 3.821312
0.000000 -1.979265 -1.450508
0.000000 -4.474868 -4.291170
0.000000 -4.140285 -4.451115
0.000000 0.333766 0.904952
0.000000 2.781612 0.574431
0.000000 3.524308 3.920244
0.000000 -2.437629 3.513007
0.000000 3.238501 4.693393
0.000000 4.970871 0.345956
0.000000 4.069252 4.069352
0.000000 0.149940 3.759101
0.000000 3.155681 0.248580
0.000000 0.875132 3.925840
0.000000 -3.727592 4.278717
0.000000 1.031079 3.367427
0.000000 2.803034 -0.606785
0.000000 -4.844857 1.751999
0.000000 2.006208 3.509786
0.000000 -3.844425 -2.252925
0.000000 1.509074 2.893910
0.000000 -2.378620 3.743840
0.000000 0.783964 -3.495371
0.000000 4.291664 1.704525
0.000000 0.930950 -0.398744
0.000000 3.041525 2.314365
0.000000 1.328207 4.318328
0.000000 -3.498157 1.164193
0.000000 0.868345 0.176960
0.000000 -2.580147 2.356813
0.000000 -4.477763 4.147172
0.000000 0.902272 1.768582
0.000000 -4.257603 2.576139
0.000000 2.827015 1.929582
0.000000 -2.104369 -1.444225
0.000000 -4.461170 4.882136
0.000000 -3.180999 -0.806725
0.000000 -0.755190 -3.592055
0.000000 2.235975 3.160723
0.000000 2.384219 -2.867845
0.000000 -4.849573 0.980086
0.000000 -3.522561 1.427807
0.000000 3.043820 0.425128
0.000000 -2.224496 4.464167
0.000000 -4.184767 2.067551
0.000000 -2.757345 1.785647
0.000000 -1.210042 -1.370785
0.000000 -4.550846 -4.393487
0.000000 1.489815 1.928863
0.000000 0.402675 -1.751742
0.000000 3.859005 4.020514
0.000000 -2.284448 -0.840127
0.000000 -4.283843 -2.854917
0.000000 3.247387 1.575478
0.000000 4.679795 4.533910
0.000000 1.345023 -4.948155
0.000000 0.955682 -3.334168
0.000000 -0.169687 -0.780753
0.000000 2.477100 2.491181
0.000000 0.114635 0.246845
0.000000 -0.357433 3.170386
0.000000 4.311475 0.130238
0.000000 3.672201 -1.492115
0.000000 -0.968972 -1.121126
0.000000 -0.798096 3.396444
0.000000 -0.855779 -1.579376
0.000000 -2.922863 -0.624395
0.000000 2.414082 4.872782
0.000000 -2.155298 -2.642147
0.000000 -4.838705 -2.226298
0.000000 0.863890 3.918694
0.000000 3.550654 3.084799
0.000000 -4.871496 -0.319186
0.000000 0.324844 -3.336028
0.000000 3.890967 -0.307101
0.000000 2.354502 2.041116
0.000000 4.404827 0.604420
0.000000 2.214033 -0.040796
0.000000 4.896901 1.692734
0.000000 2.519685 1.307402
0.000000 4.875454 -4.585235
0.000000 4.352674 3.713823
0.000000 3.776119 2.181667
0.000000 -1.113475 1.428261
0.000000 -0.145916 -0.113350
0.000000 -3.575952 -4.724054
0.000000 -3.237111 2.496948
0.000000 -2.464457 -1.938925
0.000000 -1.727881 -3.912760
0.000000 1.391150 -0.308926
0.000000 -1.382617 -3.728818
0.000000 -4.329775 -1.427990
0.000000 4.421984 -2.567382
0.000000 1.848720 3.064800
0.000000 -2.085354 -1.203814
0.000000 4.067412 4.656596
0.000000 -3.029871 3.828145
0.000000 -3.825935 2.903061
0.000000 -2.823990 -1.855212
0.000000 4.423741 4.949464
0.000000 -4.424005 -0.370481
0.000000 -1.792892 -0.209211
0.000000 4.521680 1.844147
0.000000 1.505104 0.639888
0.000000 -1.683648 -0.445894
0.000000 3.877260 -4.672076
0.000000 -2.913595 -4.773813
0.000000 3.253812 1.088205
0.000000 -2.941163 3.401007
0.000000 -2.680563 -4.612868
0.000000 -1.216938 2.130068
0.000000 3.992211 2.300795
0.000000 -0.262966 -1.694157
0.000000 1.664835 0.517137
0.000000 -4.292479 2.589111
0.000000 4.917658 -1.757807
0.000000 2.681057 -3.441052
0.000000 -3.176489 -4.609534
0.000000 -3.260149 -0.268606
0.000000 3.779291 -0.109629
0.000000 3.683873 -4.940022
0.000000 2.672421 -2.584041
0.000000 0.874046 2.478381
0.000000 -4.502984 2.085312
0.000000 -1.822974 -0.246397
0.000000 -0.688605 0.770178
0.000000 -0.676889 -2.572030
0.000000 -0.663448 4.962857
0.000000 -3.231585 -0.602843
0.000000 -1.352322 0.426710
0.000000 2.952722 -0.423552
0.000000 -3.421385 4.224156
0.000000 1.302917 0.150907
0.000000 -3.104967 3.567515
0.000000 -2.295599 1.520586
0.000000 3.050870 2.339060
0.000000 -1.897840 -2.477434
0.000000 1.989076 -3.124783
0.000000 1.410449 0.217630
0.000000 2.260247 3.728995
0.000000 1.406776 -2.273901
0.000000 -3.699403 -2.970991
0.000000 -4.369164 -3.972312
0.000000 4.986989 3.560710
0.000000 0.444070 4.965632
0.000000 1.698441 -2.106812
0.000000 1.773601 -3.283872
0.000000 -3.193986 3.757824
0.000000 -0.231044 4.773197
0.000000 -0.380540 -0.080043
0.000000 0.220906 -0.221387
0.000000 -2.056997 -2.341721
0.000000 -4.841817 0.802452
0.000000 -2.507758 -4.955426
0.000000 1.924586 -0.734156
0.000000 -0.118953 -2.595023
0.000000 4.884961 -1.322603
0.000000 4.463067 -1.892181
0.000000 2.029194 -1.895761
0.000000 -4.653937 -2.921813
0.000000 0.404559 -4.259716
0.000000 -0.476809 -2.253187
0.000000 -1.338763 3.337332
0.000000 -0.027062 0.190640
0.000000 0.761783 -1.060163
0.000000 4.113610 3.121322
0.000000 4.843412 1.355150
0.000000 2.051498 1.849425
0.000000 3.001038 -0.255846
0.000000 -0.727011 -3.457341
0.000000 1.448293 -1.951810
0.000000 2.085186 -1.102238
0.000000 -4.711881 1.577355
0.000000 0.473615 4.878629
0.000000 3.606527 -1.847973
0.000000 -2.097940 2.771278
0.000000 -4.215831 4.126768
0.000000 1.121787 0.741606
0.000000 2.976408 1.780833
0.000000 2.834021 2.275789
0.000000 1.640880 -3.408479
0.000000 4.813506 -2.267813
0.000000 -2.636394 -0.090235
0.000000 -1.830732 -4.254665
0.000000 1.608010 2.953483
0.000000 1.251041 4.740523
0.000000 -2.072646 4.012312
0.000000 3.461147 2.942216
0.000000 -0.588049 -4.444611
0.000000 -0.859761 -4.247583
0.000000 -3.053098 3.232953
0.000000 1.019049 0.751457
0.000000 4.005762 1.267902
0.000000 1.230929 4.280839
0.000000 2.141600 1.286680
0.000000 -3.443015 4.839741
0.000000 -4.776294 4.041613
0.000000 -4.664242 2.077893
0.000000 -2.904104 2.401244
0.000000 4.716059 -1.937069
0.000000 0.224313 2.951971
0.000000 3.388346 -3.444583
0.000000 4.133146 -4.961000
0.000000 3.189927 -2.068090
0.000000 -2.680392 3.281540
0.000000 2.996218 -1.153575
0.000000 2.333098 0.258675
0.000000 -2.850173 4.051495
0.000000 1.585784 -1.594000
0.000000 -4.630653 0.129207
0.000000 0.207968 -1.034936
0.000000 1.303734 -4.934390
0.000000 4.522473 -0.157160
0.000000 -2.558462 -1.346055
-4.991754 12.287038 -0.014214
4.494056 9.808320 0.962161
-4.604350 13.949348 -4.887048
1.289718 7.169200 -3.844056
3.282698 8.228542 -2.427610
-2.067712 7.447576 4.502212
3.360305 8.297521 -4.772564
4.591118 13.980312 2.499462
1.289821 16.830772 -4.481967
3.601959 15.467837 -1.015111
-0.862056 7.074875 0.057759
-4.953298 12.681792 0.173555
4.748335 13.566307 -2.149048
-0.947436 16.909416 0.076809
3.613814 15.455481 -0.175148
-4.243276 9.355268 -0.293928
-4.839424 10.743030 -4.007648
4.185341 14.735492 -1.545129
-1.510987 16.766227 -4.699129
-4.962558 12.610752 4.929235
0.429712 7.018499 3.898161
3.648925 8.581616 -2.018689
-4.997957 11.857079 -1.289728
0.556437 7.031059 3.196127
-2.233350 16.473494 2.520037
-0.039530 16.999844 -0.728368
4.757277 13.538933 -3.935904
2.024308 16.571890 1.807411
-4.375862 14.419056 4.709800
1.118311 16.873334 -2.248317
-0.680239 7.046489 4.479676
-4.877054 13.101971 -3.208298
-2.245605 7.532645 4.681744
-4.976454 12.484675 2.214842
2.617115 16.260365 -2.631166
1.817721 7.342115 1.047887
4.967623 12.568083 1.686520
4.900185 11.005923 -2.617333
-3.935389 15.084269 3.135629
4.854657 10.803210 3.449513
-4.313060 14.529331 -1.776188
-4.953914 11.322701 1.945419
-2.492845 16.334250 3.179577
4.716089 10.339124 4.267186
-4.877110 13.101726 1.981729
-0.774789 16.939605 0.911940
-3.642409 8.574675 -2.934197
2.906580 7.931611 2.694490
-4.060030 9.081755 2.495575
-4.230674 14.664845 2.973853
-4.495415 9.811109 1.640051
0.859025 16.925655 -4.300619
-4.899024 12.999780 0.928757
3.801681 15.247649 2.765753
-2.624351 7.744089 -0.597949
-1.553842 7.247572 -0.121373
4.806366 10.622015 -0.892672
1.556249 16.751641 -4.647252
-2.736809 7.815520 -0.392052
1.808804 7.338645 -2.204807
-4.443938 14.291596 -0.031363
-4.451421 14.277027 -4.125771
0.711544 16.949112 0.728751
-2.780673 16.155461 -1.919909
-3.081466 15.937584 0.243178
-1.312822 16.824572 2.605783
4.985497 12.380549 -3.264978
3.835869 15.207197 -4.495798
4.031630 14.957357 2.563064
-2.686784 7.783225 -2.376386
0.867908 16.924097 -0.461012
-0.704894 7.049937 4.126024
-4.905941 12.965270 -2.363013
3.397789 15.668110 2.235782
3.406934 8.340382 -3.953975
-4.148456 9.208887 2.397377
3.676270 15.388958 -4.033925
-4.675922 13.770807 4.152182
1.778744 16.672908 3.471522
-4.582341 14.000537 2.756733
-4.703691 10.304332 0.683320
1.621739 7.270310 3.740112
0.921766 16.914300 -0.450424
1.513383 7.234533 -0.139835
4.999001 12.099956 -3.742266
4.534664 14.106378 -3.762512
4.315133 14.525792 0.755305
3.953077 8.938435 -3.930785
-4.809523 10.633074 1.203148
2.034563 16.567335 1.031474
3.855352 15.183750 1.231269
4.961067 12.622747 1.537646
4.897260 10.991611 -1.646149
-0.328281 7.010788 3.532390
3.026999 15.979608 -3.508911
-3.289186 8.234199 0.360797
-3.035797 8.027100 -0.786292
4.990496 12.308143 -2.003643
-3.459168 8.389715 0.294485
2.513950 16.322043 -2.355433
3.207735 8.164582 -0.658365
-4.428727 14.320857 0.319727
-3.520518 8.449514 0.639995
-3.273271 8.220357 1.927114
-3.504187 15.566605 4.086190
3.432019 8.363897 3.958990
1.767036 7.322652 2.867793
-4.834702 13.275011 -3.431750
-2.232840 7.526251 1.459769
-3.533531 15.537536 2.901291
4.794485 13.418772 1.235247
4.868715 10.861750 -3.406383
-3.481293 15.588955 -0.718497
2.112098 7.467998 -0.717274
-4.968594 12.559530 3.196919
-2.489074 7.663583 2.708170
-2.975284 16.018419 0.501384
-4.953180 12.682649 3.523755
4.323028 14.512256 -2.929242
-3.244384 15.804467 2.147362
4.767165 13.508024 -4.572521
3.506567 15.564265 -3.375041
-4.999766 11.951660 -2.401323
2.977349 16.016888 -2.114297
1.864234 16.639465 3.414192
-4.992447 11.725277 4.070843
-2.651884 7.761190 -2.494643
0.627247 16.960500 -4.761847
3.754128 15.302502 4.616927
-4.241306 9.352110 -2.954094
-0.384257 16.985213 -0.189562
4.699081 10.291598 0.000426
-4.897036 13.009472 -2.635805
-4.109208 14.848580 -0.251959
4.404509 14.366495 -1.072903
-4.733585 10.389667 -1.123760
-3.458301 8.388884 -0.305594
1.403907 7.201141 -1.235371
3.827299 15.217419 0.132362
-4.999847 12.039158 3.230032
-0.395046 16.984369 2.087322
-0.851616 16.926941 -1.684857
-4.999130 12.093276 -2.113134
-2.971685 16.021080 -0.993162
-3.173131 15.864096 0.966636
3.012858 8.009676 -4.977089
-1.599011 16.737422 -2.597129
0.635000 16.959514 2.651747
-3.103528 8.079781 -3.550348
-0.272839 16.992550 2.592584
-0.537516 7.028976 -2.791054
3.037616 15.971509 3.052033
-4.327306 14.504881 -1.370153
3.277917 8.224386 -3.733473
2.772914 7.839357 0.890549
0.175184 7.003070 -4.250086
-1.930362 16.612342 -4.457354
4.796637 10.588522 -1.036869
-3.053688 8.040835 -0.622728
4.844431 13.237534 3.759219
-4.144473 9.202976 1.556605
1.769661 7.323644 1.921391
-0.117863 16.998611 1.500144
-4.576990 14.012749 -4.960232
3.789456 15.261905 2.426826
1.384746 16.804423 -4.091013
3.738843 8.680203 2.120253
-3.840180 8.797966 -3.278528
-4.859607 13.176528 -1.712788
-3.093078 15.928469 2.603024
4.964069 12.598345 3.421296
3.515947 8.444987 -1.991113
-3.615650 15.453560 4.167703
-1.155157 7.135269 -0.755958
4.803720 10.612818 0.699800
3.158180 15.876326 -0.053330
-4.046346 14.937190 0.514809
-1.020905 7.105334 -4.687403
1.429476 7.208696 -3.473252
-3.252369 8.202356 0.989623
4.769849 10.500485 3.188033
4.767235 10.492195 3.540880
-4.948501 11.284225 -4.166877
0.118069 16.998606 -4.114835
-2.472675 16.345788 1.151565
2.859065 16.101920 -0.544258
-4.406999 9.638146 -0.240507
-4.138293 14.806160 -1.222235
-1.800967 16.664388 -3.153291
-4.887607 10.945819 -2.683255
4.786587 10.554808 -0.757370
-2.430162 7.630296 -1.074588
0.402617 16.983764 -4.963272
-1.992724 16.585744 -2.401098
-2.960999 7.971044 1.362180
-4.985163 12.384900 -1.551903
-4.087139 9.119844 0.184388
0.479511 16.976954 -1.307581
-3.597815 15.472136 -3.666058
-2.061760 7.444877 -4.369915
2.655069 7.763184 -2.094591
-0.738706 7.054870 -1.109835
-3.473098 8.403114 -0.401971
-4.283799 9.421421 -1.945705
4.779506 10.531559 -4.820121
-1.020056 16.894843 4.064934
-4.172185 14.755516 4.261390
-4.668151 13.791191 -0.012101
4.492612 9.805363 -1.805605
-3.900533 8.871767 -3.141226
-4.901899 11.014411 2.577154
-3.034148 8.025840 -0.112400
4.996441 12.188625 -1.567813
-2.870810 7.906292 1.926208
-4.629740 13.888256 2.677259
-1.143234 7.132453 -3.519155
4.860780 13.171675 4.668593
4.837486 10.735591 4.899312
4.655939 13.822700 0.959205
-2.237070 7.528365 2.560473
1.233764 16.845392 3.349581
-0.945275 7.090167 -4.058232
-3.281581 8.227571 -3.779164
-0.208568 7.004352 -4.210920
-4.959290 11.363256 -4.882202
-4.542268 9.910072 1.609983
2.918338 7.940036 -1.445766
1.114991 7.125906 -0.140097
3.256465 15.794132 -3.519852
-3.334843 8.274571 2.337414
4.328942 9.497949 0.274567
4.134747 9.188619 3.912432
-1.355435 16.812774 -3.296682
-4.472880 14.234580 -2.605990
-4.720856 10.352723 -1.711447
2.707037 16.203802 3.344374
2.536019 7.690869 1.914273
-4.827182 10.696808 -0.142009
1.294879 16.829419 4.328926
4.999995 11.993064 -0.958983
-3.457796 8.388401 -2.192262
-1.566945 16.748124 -3.993497
0.818240 16.932594 -1.283782
-0.928704 7.087006 -1.647207
0.223966 16.994981 -4.862481
-4.645256 10.150245 0.604878
-0.037477 7.000140 -3.883879
-4.786865 13.444272 1.403328
3.302760 15.753901 -0.529406
-4.008510 14.988620 1.206488
-2.928970 7.947700 -3.194914
0.512444 16.973671 4.441227
-4.183071 14.738963 -4.970850
2.989080 7.991833 4.010695
4.378628 9.585955 -4.552464
-3.051571 8.039203 -1.903791
-4.952114 11.309659 0.277605
-4.521305 14.134901 3.128676
-4.871729 13.125279 2.240722
-4.772026 10.507429 1.817593
4.999673 12.057196 2.293690
0.968289 7.094654 2.597705
-4.865973 10.850082 -2.671605
0.904900 16.917434 -4.883323
4.999904 12.030957 0.055897
4.740171 13.590842 -3.408148
1.382904 16.804953 4.186534
3.390756 8.325388 1.595330
1.840628 16.648880 -1.190549
3.499081 15.571615 -0.442192
-3.358613 15.704014 3.070337
-3.602343 15.467437 -1.516373
4.989475 12.324256 2.854582
-4.687188 13.740767 -1.877988
0.745038 7.055820 -0.426565
-3.168517 15.867880 3.285794
1.777523 16.673372 -0.098032
-1.488748 7.226780 0.213009
2.026689 7.429165 0.829369
1.787858 16.669429 4.172670
1.404906 7.201434 1.867992
-4.743440 13.581067 -4.069521
2.840571 16.114749 -0.377536
-0.487893 7.023861 2.301414
3.371738 8.307930 3.857320
-4.135689 9.190005 2.664896
4.911756 12.935229 3.233260
-1.149008 16.866187 2.732076
2.321804 7.571769 3.640252
4.988650 11.663295 -1.478833
-2.057372 7.442893 -4.361642
-0.103989 16.998919 2.428999
-4.686778 13.741871 -2.231197
2.522037 16.317329 -2.756939
-4.641934 10.141924 -0.111563
-2.084570 7.455270 1.952718
4.887998 13.052365 4.421254
-1.047453 16.889053 2.305704
-4.063852 9.087080 -0.145096
2.258909 16.460643 0.477513
-4.829411 10.705090 -0.950674
-0.966240 7.094250 -0.400012
-4.796452 13.412109 -3.854325
-2.342777 16.417170 -1.187449
-4.810396 13.363850 0.163890
-4.813416 13.353153 1.017212
-1.122407 16.872392 -4.262146
4.831272 10.712052 2.617647
-1.519254 16.763598 -0.215057
-4.568715 9.968536 -4.517665
3.033177 15.974901 -0.502653
3.843770 15.197723 -3.563260
4.284491 14.577429 3.436445
3.780071 8.727224 -4.946972
4.146521 9.206012 3.089884
0.260441 7.006788 -4.044508
2.397252 7.612155 1.847826
3.550037 8.479029 1.364746
-3.265794 15.786105 -2.780072
-4.188680 9.269622 1.609630
1.865663 7.361110 -4.930563
3.210009 15.833516 -1.396547
-4.674728 13.773954 1.262980
4.210005 14.697379 3.100489
0.997061 7.100421 -2.475421
-2.908135 16.067278 -2.416329
4.571496 14.025197 -1.438184
-1.833643 16.651640 4.495953
-0.297758 16.991126 -0.846090
-2.268503 7.544229 1.969770
-3.589859 15.480361 4.119995
1.771140 7.324204 2.186870
-3.235132 15.812338 -0.427677
0.409294 7.016780 0.552824
1.173854 7.139746 4.850049
-2.296768 7.558733 1.444181
3.097902 15.924666 -4.196270
2.323399 7.572606 3.592028
4.566720 14.035945 1.103969
4.050819 9.068982 -0.363913
-2.523017 16.316756 -3.913879
-1.539821 16.756990 -4.119375
-2.713018 16.199945 2.223542
1.659981 16.716403 -2.447387
3.520672 8.449666 -0.164645
4.539669 9.904431 4.145034
3.282356 15.771755 -4.649583
1.450223 16.785066 -1.156554
-2.977803 16.016552 -1.988988
2.248207 7.533954 -4.068868
4.962384 12.612161 -2.783122
-4.534907 14.105853 0.332743
-0.442284 7.019600 0.928640
-0.783860 16.938174 -1.134604
4.074823 14.897554 3.584109
4.912221 12.932785 -2.511494
-4.971773 12.530537 -0.125555
1.333838 16.818805 4.167220
2.852862 16.106236 -3.694989
3.632646 8.564322 3.486908
2.703927 7.794197 4.139605
2.383326 7.604575 -0.623057
-1.636841 7.275516 3.750909
4.340779 14.481459 1.936428
4.604741 13.948425 1.024390
-3.865365 8.828415 -1.399120
-4.957903 12.647452 3.257231
-1.786514 7.330057 0.635028
-0.707456 16.949698 0.230176
-4.400165 9.625436 -2.225599
-4.542916 14.088520 -2.620548
-0.745268 7.055854 3.796959
-4.336374 14.489148 -0.199766
2.818739 16.129735 2.475805
4.904314 11.026500 1.632656
-1.990630 16.586654 3.659125
4.759557 10.468131 -0.411658
2.578264 16.283988 0.083791
2.345170 7.584099 -0.319080
-3.986143 8.981612 -3.602453
3.143123 15.888544 -0.848531
-1.941391 7.392289 0.606075
-4.845994 13.231398 -0.322559
-4.294893 9.439943 0.907744
-4.958290 12.644482 2.466793
1.317674 16.823250 -0.637556
0.086114 16.999258 -4.457608
-0.927252 16.913268 -3.909378
-4.763259 10.479684 -1.120910
-3.835637 8.792526 -0.724584
-4.947325 11.276136 1.886482
-4.857401 10.814398 -3.046783
4.796018 13.413581 2.810774
-1.113876 7.125651 -1.983209
-1.404270 7.201248 4.213579
2.300748 7.560793 4.490801
3.736924 8.678043 -1.734950
1.953362 16.602649 1.805052
3.950958 15.064300 -4.486534
4.056555 9.076926 0.042383
-4.922420 12.877371 2.488514
-0.427209 16.981716 -4.169751
-3.847875 15.192782 -1.412472
4.658655 13.815746 -2.943668
-2.465426 16.349905 -2.399223
1.270136 7.164015 -0.388062
-3.940644 15.077551 1.885222
1.654339 7.281614 -0.610788
4.999417 12.076339 0.417528
-3.261099 8.209850 -0.629504
-4.961128 11.377737 4.515106
2.543571 7.695323 -1.297873
-0.134806 7.001818 -1.492791
-4.576496 9.986126 3.095016
4.990897 12.301575 -3.601746
-4.951511 12.694647 -3.024641
4.033554 14.954732 -4.527907
-4.503277 14.172669 -1.933578
-3.073655 15.943684 -1.741710
4.051349 9.069715 -1.096135
4.671040 10.216357 -0.498550
4.587743 13.988118 2.415841
-2.634982 7.750662 2.371624
-4.117351 9.163203 -1.973802
-4.994360 11.762578 3.517234
-4.895490 10.983052 0.202969
4.947063 11.274347 -1.964271
-3.311604 15.746102 0.552435
-3.297145 8.241166 3.755297
-0.268846 16.992767 2.430361
-2.477590 7.657011 -4.851387
-2.572135 7.712329 -0.236202
-2.511918 7.676776 -4.428411
-2.966162 7.974843 -4.819007
1.509517 7.233308 0.844570
