-4.083847 2.884821 0.692755
-0.905153 -4.917387 4.868074
-1.181613 -4.858373 3.953637
4.938212 -0.783618 0.463018
-1.020932 4.894660 3.427772
3.964333 -3.046976 0.063686
-4.174828 -2.751511 6.788141
-4.642067 1.857744 3.234516
4.444784 2.289955 4.283229
-4.755485 -1.544462 2.760749
3.285844 -3.768718 1.783068
-1.998726 -4.583131 4.094193
3.514671 3.556274 1.912263
4.748932 1.564496 4.257951
0.828060 -4.930955 6.945454
-1.768920 4.676636 3.318700
-4.667179 1.793723 6.045289
1.871206 -4.636657 9.770213
4.061673 -2.915958 7.434303
-1.134393 4.869615 8.030105
-2.232050 -4.474143 7.513463
4.603596 -1.951130 0.361939
3.477405 -3.592722 8.631576
4.463301 2.253652 3.685383
4.214313 2.690644 0.566558
-1.504002 -4.768435 2.106980
0.942917 -4.910286 3.656603
0.335453 4.988734 0.804710
-2.510480 4.324059 4.622976
4.302356 2.547496 0.761728
4.321858 -2.514268 7.161751
-4.632419 1.881672 0.310643
4.891731 1.034877 5.272069
-4.123063 -2.828489 1.709786
2.455511 -4.355510 3.942826
3.526331 3.544713 5.659966
1.339646 4.817193 0.472394
-3.309147 3.748272 7.827580
4.625740 1.898034 3.488466
4.629172 1.889647 4.782806
1.273124 -4.835200 4.503680
-1.501204 -4.769317 1.695080
4.185354 2.735472 6.681663
-4.085126 2.883009 5.192970
-1.222165 -4.848331 6.129117
0.370379 -4.986263 3.541335
4.875241 -1.109965 3.608853
-3.081705 -3.937397 6.691603
0.834064 -4.929943 3.664657
2.154628 4.511937 0.735350
4.983225 -0.409226 7.624285
-2.214833 -4.482690 1.195729
4.527828 -2.121030 0.565503
-3.743012 -3.315095 2.715004
-4.788268 -1.439613 1.186061
-4.892384 1.031784 5.779334
-4.979360 0.453847 9.153871
3.494549 3.576050 3.439241
-0.477523 -4.977145 6.949441
-4.510818 2.156969 6.073588
-3.087174 -3.933110 1.534522
-1.454583 4.783742 4.388679
4.921585 -0.882042 4.939159
-1.558105 -4.751032 2.852950
4.830744 1.289927 1.843454
-2.436439 -4.366207 0.279342
4.938170 0.783888 7.278355
-4.588566 -1.986219 0.437398
2.506930 4.326118 1.565469
4.788213 1.439798 4.774203
-2.586479 -4.279033 1.077360
-0.971337 4.904743 4.067044
-4.348993 -2.467034 4.063560
0.532069 -4.971610 7.212676
4.742893 -1.582707 7.051890
-4.586654 1.990630 9.666475
-1.864044 4.639541 1.035586
-3.660451 -3.406039 9.485888
4.929739 -0.835271 3.847989
4.990749 -0.304016 2.029114
-0.076432 -4.999416 5.604124
4.342643 -2.478196 5.730217
-0.826467 -4.931222 1.327208
4.913894 0.923931 3.443204
-3.031179 3.976425 6.904725
4.991748 0.287149 1.153247
-0.431294 4.981364 3.333505
-4.965773 -0.584033 9.545744
4.855814 -1.192087 1.387327
4.885644 -1.063243 1.649431
4.590151 1.982552 8.328308
3.776224 3.277214 7.029784
1.484696 4.774482 1.525165
0.461246 4.978680 5.034710
-3.401284 3.664869 4.074363
0.209961 4.995590 5.376289
4.974147 0.507805 9.655920
2.749263 -4.176308 2.663281
4.999668 0.057599 0.251914
3.198495 -3.843127 4.330271
0.148374 4.997798 4.486033
4.999668 -0.057637 9.297110
2.178356 -4.500529 0.487541
4.405488 2.364672 7.862162
4.899551 0.997197 6.176634
-1.958085 -4.600642 3.718195
-4.977787 -0.470784 6.453769
-4.498830 -2.181863 8.824388
-1.429114 -4.791412 1.729741
4.779328 -1.469020 0.215538
-1.978601 -4.591855 3.256121
0.622898 -4.961048 3.680152
-4.193891 -2.722367 6.234203
-4.451516 -2.276842 6.768351
4.853895 -1.199876 5.866162
1.175808 -4.859781 4.058661
4.481548 2.217144 9.121427
-4.958136 0.645667 5.691163
2.980548 -4.014515 4.353180
-4.258384 2.620337 9.480585
-4.122758 -2.828934 2.524773
-4.475818 2.228689 2.913266
2.482999 4.339898 6.564011
4.344851 2.474322 3.984583
1.589820 4.740514 2.273384
1.173033 4.860452 3.816411
-1.911491 4.620195 8.393970
-0.323705 4.989510 3.543606
-0.460817 -4.978720 6.176463
3.522900 3.548123 3.405388
4.963030 0.606902 7.318400
-4.431158 -2.316213 4.037866
-0.533744 4.971430 4.345526
4.733502 1.610577 9.514825
4.999994 0.007435 7.208884
-4.999881 -0.034516 2.205970
3.271505 3.781171 5.959782
-2.371662 -4.401729 1.506090
-4.990622 0.306095 1.209965
4.877692 -1.099145 3.398497
1.275851 -4.834481 5.483538
-1.028915 -4.892988 1.074133
-2.705160 4.205010 6.476025
-4.141874 -2.800872 3.209206
1.733417 -4.689911 8.412359
-4.110734 -2.846377 0.786743
1.792221 -4.667756 8.970645
1.916467 -4.618133 2.974296
-1.318276 -4.823085 0.345964
-1.576830 -4.744850 0.711706
4.554266 2.063651 1.889309
-4.247341 2.638199 4.880043
-0.897626 -4.918767 5.780480
2.129818 -4.523702 6.175825
-1.102321 4.876975 4.462553
4.932878 0.816523 6.766010
-3.541916 -3.529140 3.561989
2.994112 4.004409 4.802574
-4.972655 0.522213 9.645308
-4.995009 0.223341 2.661648
4.724412 -1.637051 3.286930
4.246750 2.639150 4.752820
3.538917 -3.532147 9.134029
2.978752 4.015848 9.401798
1.074983 -4.883074 7.802185
-4.683667 -1.750219 3.242590
0.077838 -4.999394 0.736183
-0.776872 -4.939278 4.404910
1.918969 -4.617094 7.387142
-4.979432 -0.453051 9.712730
-1.494566 4.771402 8.434534
-3.618584 3.450486 0.196947
-4.707138 -1.686075 1.510143
4.018025 2.975815 6.266814
-4.672237 -1.780507 8.316884
4.057434 -2.921854 8.274005
-4.997611 0.154554 2.684175
4.998049 -0.139667 8.480494
-0.239209 4.994275 8.557771
1.339779 -4.817156 3.745477
1.557484 4.751236 7.786704
4.916431 -0.910335 0.609709
3.841757 3.200142 4.931752
-4.241164 2.648118 5.268825
-3.205585 -3.837216 7.688883
3.854708 3.184530 6.810798
-3.258767 -3.792155 1.342837
4.999390 0.078070 7.454503
3.235741 3.811821 2.846386
-1.422345 -4.793426 4.914322
2.471436 -4.346493 3.461325
3.794168 3.256423 9.096558
0.313710 4.990149 4.911070
-2.049973 -4.560440 2.981444
1.855012 -4.643160 6.874186
2.772766 -4.160741 9.652274
-0.319965 4.989752 6.766903
4.021816 2.970689 9.353622
3.102954 -3.920673 6.021681
3.023896 -3.981966 9.233066
-2.233438 -4.473450 2.155789
4.934466 -0.806873 3.647848
1.307411 -4.826042 5.104413
1.822240 4.656119 1.465096
4.060628 2.917413 8.439023
-2.392340 -4.390525 0.890391
-4.275661 -2.592050 3.114748
-4.996780 -0.179422 7.620273
-0.926760 4.913361 9.829913
-2.200593 -4.489698 5.279692
-3.791555 -3.259465 2.623939
4.110567 -2.846618 7.493392
-3.815849 -3.230990 7.751555
3.341071 -3.719845 7.073105
-1.148757 -4.866247 1.894323
1.411742 -4.796560 6.661435
4.831904 1.285573 5.573673
-4.983778 0.402435 7.338915
-0.042733 -4.999817 3.552311
3.196848 -3.844498 1.848100
-4.997590 0.155232 4.823507
-0.202748 -4.995888 3.779814
-4.267076 2.606159 8.691178
4.996540 -0.185967 4.044516
-1.617798 4.731039 7.486946
1.589485 4.740626 8.569623
-1.338096 -4.817624 3.382398
-2.045571 4.562416 9.624153
3.605140 3.464529 6.569836
3.007577 -3.994306 2.447065
-0.843980 4.928255 8.785113
-1.424321 -4.792840 6.024025
-4.494893 2.189964 1.817036
-3.179610 3.858767 6.661182
4.965530 0.586101 1.669784
3.739234 -3.319357 9.746283
-1.460490 -4.781942 6.189833
-4.992588 -0.272150 3.675321
4.104377 2.855537 4.154287
4.127355 2.822223 3.680922
1.402775 -4.799190 2.391360
0.908514 -4.916767 0.125231
4.625410 -1.898837 1.214123
3.432355 -3.635786 8.055045
3.852591 -3.187090 2.612281
-4.854257 -1.198411 8.963699
-0.843794 4.928287 7.438691
-0.528872 -4.971951 8.410563
-2.530702 -4.312255 3.510159
4.864170 -1.157521 9.778440
-0.852232 4.926835 8.427492
3.798661 3.251181 9.041606
3.901465 3.127070 8.179022
4.751862 -1.555573 5.759663
-2.837167 4.117097 9.522832
-3.696115 3.367303 3.460119
3.589659 -3.480568 0.515093
-4.891272 -1.037042 7.399563
-4.359275 2.448821 6.932832
-4.318855 2.519423 3.894272
-4.910219 -0.943267 3.365831
1.858576 -4.641734 8.675848
2.952517 -4.035176 5.365892
3.970069 -3.039499 1.836457
-3.266197 3.785757 9.753295
2.498592 -4.330940 5.935556
-4.223295 2.676523 3.707161
4.996953 -0.174516 1.651705
3.449470 3.619552 2.017932
-3.760374 -3.295388 2.045207
1.692674 4.704769 9.141879
-4.203678 2.707230 7.556196
-4.070049 -2.904256 8.342054
4.973637 -0.512771 6.697926
-3.359591 -3.703127 7.309722
1.145270 -4.867069 3.870359
-4.081950 -2.887505 7.275245
-1.258074 4.839137 1.787715
-1.459578 -4.782220 3.471933
-4.347536 2.469602 0.970091
-3.698426 3.364765 0.556550
3.999539 -3.000615 0.042236
4.993947 -0.245958 0.121384
-4.919635 0.892855 5.886697
0.875194 -4.922808 2.419342
-1.706661 -4.699714 3.991596
4.981714 0.427234 4.446112
-4.996919 -0.175503 0.462501
-0.490960 -4.975837 4.887801
4.921305 -0.883603 7.935201
-2.607323 -4.266365 1.064869
4.590638 1.981424 9.032617
1.199453 4.854000 4.949384
-4.998734 0.112499 1.688832
4.967993 -0.564843 7.267864
-3.743227 -3.314853 7.156771
1.614210 4.732264 3.251410
-4.231920 -2.662865 2.500249
2.619901 -4.258652 8.865844
2.770284 -4.162394 8.808500
-2.179390 4.500029 7.599523
-1.766773 -4.677447 7.964910
1.155435 4.864665 2.744954
-4.997182 0.167831 4.123875
0.989203 4.901171 0.652011
0.311547 -4.990284 1.968460
4.136254 -2.809165 3.748994
3.809933 3.237964 7.986901
-4.911032 -0.939021 7.854756
2.721625 4.194372 4.964175
0.992929 -4.900417 5.851238
-4.901178 -0.989170 9.410039
4.174209 2.752450 7.534202
-0.009227 -4.999991 3.997928
0.634748 4.959546 7.103436
0.102552 -4.998948 1.470413
-4.740456 1.589993 3.092223
-3.173661 3.863661 3.034287
-1.095272 -4.878563 4.658394
-3.067013 3.948852 7.334594
-4.007037 2.990594 6.456349
4.010446 2.986021 4.395882
4.804578 -1.384207 7.617003
-3.953501 -3.061017 0.584182
4.842400 1.245458 5.798255
3.882514 -3.150569 0.887852
-3.019712 -3.985139 5.913055
-4.665267 1.798689 9.294561
-0.641394 -4.958691 8.896130
-2.281938 4.448906 0.946856
-2.343676 -4.416693 0.908737
0.739297 4.945042 5.450321
-4.999993 0.008175 4.778018
-1.179548 -4.858875 5.254489
-4.043153 2.941584 8.819830
3.057947 -3.955877 5.812565
-4.863957 1.158412 7.466374
2.417599 4.376667 2.891637
4.748794 -1.564913 1.982845
-4.998660 0.115746 5.013464
-4.653396 1.829183 2.866122
3.723519 -3.336975 2.819493
3.425513 -3.642233 8.234030
1.652297 -4.719101 6.189532
0.328017 -4.989229 8.883799
-4.598015 1.964246 5.711459
2.067287 -4.552617 7.850739
-0.583336 -4.965855 9.764287
-4.242855 -2.645408 7.502335
-2.119668 4.528467 6.418332
-3.832227 3.211547 1.476125
-4.425989 -2.326074 9.930735
-2.167286 -4.505871 9.606951
3.769538 3.284902 7.345606
-0.122249 4.998505 7.713660
-4.345168 -2.473765 0.975488
4.080049 -2.890190 1.033227
3.329249 -3.730429 0.162098
4.724097 -1.637958 8.920942
-4.170315 2.758346 3.716272
-0.229086 -4.994749 1.979320
-1.442171 4.787499 6.812219
-4.787360 1.442629 6.663798
-2.360663 4.407638 8.560634
-4.836348 -1.268754 0.017101
0.613721 4.962192 5.723656
4.380078 2.411414 7.343064
-2.216342 4.481945 7.594555
-3.604853 3.464828 1.432343
-4.980367 -0.442658 1.759862
-1.683005 -4.708237 3.731549
-4.997319 0.163721 5.963642
-3.315829 -3.742362 4.946066
-4.945604 0.735529 2.001154
2.156538 4.511025 3.430726
1.705730 -4.700052 7.675544
0.756382 -4.942458 3.946106
4.832070 1.284951 7.329781
-3.630478 -3.437969 4.801677
3.901556 -3.126958 7.908711
4.457435 2.265231 5.913702
-3.774270 -3.279464 2.655294
-4.979028 0.457476 7.128547
-0.644245 -4.958321 2.437145
3.672659 -3.392871 5.618790
4.670982 -1.783795 7.987770
-4.783081 -1.456755 6.675850
4.636647 1.871230 1.194407
-2.771996 4.161254 6.818862
4.653953 1.827764 0.809407
3.533440 3.537627 8.693432
2.569198 -4.289431 8.834497
-0.319305 4.989794 4.985651
0.492699 4.975666 0.929403
-2.452920 4.356969 8.668356
1.814764 -4.659038 8.068650
-4.999259 0.086074 2.671593
-3.441189 3.627426 2.207647
4.957372 0.651510 5.854322
2.558248 -4.295971 2.901692
-2.427489 -4.371190 8.883946
2.157764 4.510438 9.399698
-1.064366 -4.885399 3.173291
-2.244672 -4.467824 2.887092
-4.979097 -0.456716 6.369332
-4.839580 1.256370 1.203943
-4.754446 -1.547656 3.483657
-4.960071 -0.630633 1.256482
2.728193 -4.190103 9.152512
-3.685173 3.379275 6.796317
-3.163436 3.872037 5.646145
2.483075 4.339854 0.327619
-1.439069 -4.788432 2.503718
0.938624 4.911108 2.107415
-4.708303 -1.682821 9.962361
0.760484 4.941828 1.131269
1.191177 4.856037 9.845158
-4.887090 1.056575 5.664450
3.637624 3.430407 9.737929
1.349026 -4.814575 9.721202
-2.241507 -4.469412 5.812812
-0.313886 4.990138 0.448956
2.477570 -4.342999 9.785794
3.054409 3.958609 8.716558
-0.146516 -4.997853 3.439960
4.991160 -0.297196 5.190977
-4.970575 -0.541650 5.806158
-0.889444 4.920253 4.872115
-0.008930 -4.999992 0.742488
-3.788203 3.263359 8.077263
-3.244796 3.804116 2.317298
3.249560 3.800048 1.673231
-3.049956 3.962041 3.436330
-4.909204 0.948536 2.804782
-4.321148 2.515489 2.624544
-1.014019 4.896097 4.098635
4.488259 2.203528 5.688556
1.162761 -4.862919 4.403404
4.483318 -2.213564 4.328646
-4.416181 -2.344641 1.469397
-1.499898 -4.769728 1.198210
3.857157 3.181563 6.933117
-4.577885 -2.010713 0.854971
-4.187579 -2.732066 6.647308
4.990203 0.312851 5.051672
-1.324163 -4.821472 3.321850
-0.666630 4.955361 5.826527
3.587860 -3.482421 8.115684
-4.843932 -1.239486 0.201371
-4.449355 2.281061 4.674150
4.670196 1.785853 5.122242
-2.636033 4.248686 9.566874
0.582430 4.965962 3.079975
2.823355 -4.126580 7.847116
4.921790 -0.880901 4.817159
-0.824620 4.931531 5.786765
4.505868 -2.167291 5.844051
4.654282 -1.826925 7.456871
-4.718658 -1.653561 9.158617
4.346273 -2.471824 6.586129
1.860263 4.641058 5.749942
-1.815475 4.658761 6.017601
-2.568537 -4.289827 4.114324
-2.555788 4.297435 1.574300
4.882313 -1.078434 0.437384
-1.449265 -4.785356 0.602233
-1.728545 -4.691709 1.030110
-3.614091 3.455191 9.900052
-4.835034 -1.273754 1.173480
-4.808577 1.370251 9.830939
3.297098 -3.758875 9.945415
4.994761 -0.228823 9.852095
-4.907846 -0.955535 3.999656
0.402477 -4.983775 3.493991
-3.614414 3.454853 6.197591
0.954854 -4.907979 7.295668
4.429828 2.318754 6.229463
-2.336832 4.420318 1.648711
4.375711 2.419329 5.994229
-0.715960 -4.948475 7.041633
4.892372 -1.031843 4.541315
4.744928 1.576596 8.156721
4.668266 -1.790891 4.303101
-2.400223 4.386221 4.660548
4.839231 -1.257714 9.768585
-1.302233 -4.827441 1.522521
4.502828 2.173600 9.163331
-2.509569 -4.324588 2.515591
-3.640623 3.427224 8.066518
1.328639 4.820240 7.795463
-4.296932 2.556633 9.723496
-4.365082 -2.438455 8.600275
-0.650694 -4.957479 9.318887
3.208898 -3.834446 0.777997
3.523630 3.547398 4.401742
-1.263785 4.837649 0.925440
-2.307053 -4.435933 5.814143
-2.705519 4.204779 8.651106
-4.063099 2.913971 7.610008
-3.567157 3.503626 7.501291
-4.829984 1.292770 3.285298
-4.926931 -0.851673 5.490983
-4.986325 0.369545 3.165357
0.838819 -4.929136 1.430749
-3.599917 -3.469956 7.596330
-2.711220 -4.201105 0.927155
4.782595 1.458349 8.268256
-3.313288 -3.744613 5.159144
-4.493264 2.193304 3.039587
2.592582 -4.275339 4.268272
-2.492592 -4.334396 2.707298
-4.776569 -1.477969 5.748154
4.947671 -0.721490 2.329667
0.078446 4.999385 5.312781
3.376926 3.687326 3.257711
4.594235 -1.973069 3.430487
3.024862 -3.981232 3.137623
2.314498 -4.432054 1.401256
-4.799867 1.400456 9.425446
-3.526200 -3.544844 7.610248
2.660774 -4.233236 4.397308
-4.995533 0.211304 6.984194
-4.942148 0.758405 2.731915
-0.803711 -4.934982 0.327763
3.471762 3.598176 0.405636
-0.306191 4.990616 8.646624
-2.794769 -4.145994 0.168637
-2.567369 4.290526 0.618581
2.704816 4.205231 6.600341
3.014391 -3.989166 9.421449
-3.133731 3.896117 3.069826
0.930582 -4.912639 5.073055
4.937689 -0.786910 5.851234
-0.489759 4.975956 3.523670
0.689953 4.952168 0.054281
4.703338 1.696647 9.892598
-4.942255 0.757706 3.096413
-2.745149 -4.179014 4.237636
4.336159 -2.489524 1.056898
-4.571222 -2.025816 3.741034
-3.304740 3.752158 6.177710
-1.716099 4.696276 2.795295
4.996150 -0.196168 0.924557
-3.744829 3.313043 0.232195
-0.931595 -4.912447 1.622197
-4.985030 0.386623 6.310993
4.899523 -0.997336 3.128943
-0.823121 4.931782 6.846696
-4.982881 0.413392 7.475378
1.768551 -4.676775 3.723321
-4.970426 0.543013 1.143091
4.405256 -2.365104 8.818717
-4.875205 -1.110125 0.388702
1.490363 4.772716 8.260935
0.497959 -4.975142 6.057026
2.632735 -4.250730 4.371372
-4.998492 0.122783 9.251424
2.982524 4.013048 3.089551
4.303663 2.545286 0.319177
-4.296993 -2.556531 7.466294
0.887650 4.920577 3.052034
-4.857469 1.185324 6.023800
1.044405 -4.889705 0.684556
1.571322 4.746678 6.910245
3.887016 -3.145012 0.843416
4.940077 0.771777 0.194517
-4.425841 -2.326356 4.210135
1.329469 -4.820012 1.510645
-4.010718 -2.985656 2.870019
2.048033 -4.561311 5.507403
1.842262 -4.648233 9.279809
-4.960718 0.625525 0.398243
-3.579726 -3.490782 1.245606
-3.716730 3.344536 6.153881
4.803203 -1.388971 7.489367
2.180743 4.499373 7.185209
-4.165189 2.766081 8.899438
4.549641 -2.073829 3.383910
2.557351 4.296505 7.344425
-4.493072 2.193697 0.785680
4.261955 -2.614525 2.399907
2.577178 -4.284641 1.955951
4.989384 0.325649 9.510257
4.993430 -0.256232 1.935131
-0.207957 4.995674 4.079190
-3.725925 3.334289 3.667608
-3.491965 -3.578572 1.360431
3.373621 3.690350 7.150763
4.901304 0.988544 4.927188
1.631783 -4.726234 9.002663
1.787853 4.669430 6.937619
4.735973 -1.603298 8.146953
2.440960 4.363681 4.769152
2.863906 -4.098542 1.124292
-3.627286 -3.441337 4.011022
-0.802782 4.935133 6.315298
2.605622 -4.267404 3.139049
2.912745 -4.063978 3.777439
-4.929225 -0.838295 2.537980
-0.101626 4.998967 7.543394
3.316177 -3.742054 3.401901
4.909195 -0.948582 3.607010
-0.151044 4.997718 7.229905
-4.471388 -2.237563 9.554962
-3.039098 -3.970375 2.042929
-4.166873 -2.763543 6.952317
-4.935416 -0.801043 6.448203
-0.803857 4.934958 4.713355
-2.478426 4.342511 8.130467
-2.664597 -4.230830 4.328918
-4.745561 -1.574692 4.260160
-2.165873 4.506550 1.009912
-3.709245 -3.352835 3.635643
3.960481 3.051981 2.257936
-1.915091 -4.618704 1.777978
1.301255 4.827705 3.095541
2.949298 4.037529 5.076928
4.977625 -0.472489 0.991857
-2.778775 -4.156731 0.753466
-4.928044 0.845209 6.998075
-1.358497 -4.811911 1.511230
-4.685307 1.745824 8.830768
4.992796 -0.268304 1.558687
-1.184259 -4.857729 6.323810
-4.588368 1.986675 3.174218
-4.865651 1.151276 3.337232
-1.305454 4.826571 0.124600
-1.431934 -4.790570 8.145183
0.712951 -4.948909 6.610889
0.675761 4.954124 8.852833
-0.694080 -4.951591 9.658023
-0.012942 -4.999983 8.004940
1.899042 4.625326 0.065203
-4.923644 0.870478 4.797561
-2.553245 4.298946 8.608420
-0.473196 4.977558 7.609624
-4.377406 -2.416261 0.931211
-4.788311 1.439472 6.568332
4.982492 0.418053 2.587564
0.128031 -4.998361 0.319297
-2.633516 -4.250246 2.420421
3.919816 3.104037 7.879462
3.195840 -3.845336 3.364438
4.993657 -0.251783 2.901395
-4.471516 2.237307 1.220618
2.763527 4.166884 5.735287
4.942320 0.757278 8.755530
-3.834095 -3.209317 2.129835
1.924182 -4.614924 8.397706
4.211594 -2.694898 0.208227
-1.045642 -4.889441 1.847158
1.425125 -4.792600 8.978144
2.319056 4.429670 3.282605
-4.918746 0.897738 3.731511
-3.441038 -3.627569 3.632254
-1.598468 -4.737605 8.248453
-3.990352 -3.012821 3.621260
3.174447 -3.863015 0.705889
0.833625 4.930017 7.480136
-0.361084 4.986945 5.707515
-1.821275 -4.656496 3.273241
2.186709 -4.496477 4.623363
1.391665 -4.802423 5.510262
-4.403897 2.367633 3.323249
1.011414 -4.896636 2.178956
-4.549137 -2.074934 6.123656
-2.543648 -4.304632 4.732088
-2.482238 4.340333 8.924452
2.536541 4.308823 5.973114
1.345408 -4.815587 2.046793
-2.530415 4.312424 9.552815
2.278272 4.450784 9.097143
3.614737 -3.454515 5.708187
3.705525 -3.356946 0.733853
-4.199312 -2.713996 2.271287
3.931998 -3.088590 1.505040
3.012263 -3.990774 4.730350
-4.250742 2.632716 9.885660
1.112672 4.874624 8.505706
4.990684 -0.305072 7.016022
1.263333 4.837767 5.958536
-3.548663 -3.522356 9.899742
-4.953045 -0.683630 6.875427
-1.467600 -4.779765 5.756869
2.990120 -4.007391 8.945575
1.801321 4.664252 2.523310
4.782366 -1.459101 3.942757
-4.474248 2.231840 9.710057
3.686163 3.378195 5.687185
4.932136 -0.820993 4.548750
4.567592 2.033986 9.451424
4.975133 0.498050 0.051480
-3.521523 3.549489 9.743720
0.048374 4.999766 8.960095
1.866958 -4.638369 2.463218
-1.400617 -4.799820 9.222238
4.887800 -1.053286 5.289677
4.950710 0.700338 1.937710
3.378869 3.685546 4.651994
-2.842935 4.113116 3.302081
0.276804 4.992332 5.466075
2.161281 -4.508754 1.457327
-4.633596 -1.878772 5.364867
4.848380 -1.221968 2.952921
4.898429 -1.002695 6.625661
1.063114 -4.885672 5.153830
4.987639 0.351366 8.906416
-3.675873 3.389389 9.933048
-4.568948 2.030939 9.479033
3.395025 3.670669 8.436007
-3.083055 -3.936340 7.102831
1.144807 -4.867178 9.087077
-4.679478 1.761387 9.827179
-0.908943 -4.916688 0.273888
-1.465478 4.780416 7.758526
-2.360190 4.407891 9.271422
-2.816684 -4.131137 5.963983
4.366178 -2.436491 4.565502
-3.649698 3.417558 0.248718
-4.659296 -1.814100 2.170627
2.970220 4.022162 7.821134
-2.922969 -4.056631 8.199160
-0.023688 -4.999944 6.613869
-4.766381 1.510502 3.174759
-4.971291 -0.535039 1.666177
4.710077 1.677850 2.053953
2.202775 4.488628 2.553989
-2.409235 4.381277 2.910469
2.768965 -4.163272 4.238035
3.087572 -3.932798 2.649563
-0.895864 -4.919088 0.425451
3.917393 -3.107094 4.286140
-2.770421 4.162303 2.919976
-4.143950 -2.797799 7.110409
1.979544 -4.591449 8.018985
4.906306 -0.963410 7.638363
2.366332 4.404597 9.478453
2.880160 4.087136 5.264649
-2.706723 4.204004 2.805651
-4.420453 -2.336577 5.049825
1.963860 4.598179 7.675505
-3.548090 3.522933 3.392049
4.679472 1.761403 3.825101
0.780264 -4.938744 0.377564
-4.589402 1.984285 0.964203
4.554873 2.062312 7.650259
-0.733547 -4.945898 8.366405
4.670807 -1.784253 0.269632
-0.083706 4.999299 7.529265
-4.674114 -1.775572 1.374028
-1.773103 -4.675051 0.508843
-3.538914 -3.532151 6.838205
-4.919703 0.892483 7.840385
2.747361 4.177560 5.011131
4.971702 0.531206 5.222732
4.002208 2.997054 3.158026
1.883891 4.631518 0.506258
-4.406008 -2.363704 1.616502
-4.997503 -0.158006 3.572563
4.350212 -2.464884 1.228196
-4.126624 -2.823291 2.257637
3.910558 3.115692 4.207421
4.535940 2.103628 0.878455
4.997866 -0.146072 1.262793
-3.573864 -3.496783 8.281961
4.795810 -1.414288 7.651679
-1.378453 -4.806232 5.209345
1.688902 4.706125 1.196757
1.886143 4.630601 0.928773
4.821564 -1.323827 8.895205
1.471848 4.778458 0.730153
-4.788903 1.437502 0.911166
0.606477 4.963082 7.555044
-4.360003 2.447524 0.486716
4.272781 -2.596795 6.925310
1.303212 4.827177 6.126751
4.999892 -0.032904 3.237765
-2.862391 4.099599 7.173274
-4.881306 -1.082981 0.130313
-4.174313 -2.752293 4.696926
-2.955834 4.032746 5.727706
4.476834 2.226647 1.303732
-3.170732 3.866065 2.412528
4.740541 1.589740 1.466766
-2.551767 -4.299824 8.449370
-2.882061 -4.085796 3.273644
-2.058465 -4.556613 4.664742
4.611567 1.932215 2.856943
1.280785 -4.833176 2.446146
2.112937 4.531611 7.569789
1.562407 4.749619 6.828336
-3.319117 -3.739447 4.172477
2.219153 -4.480553 2.062274
-4.138362 -2.806058 3.212877
4.894231 1.022986 5.274037
-4.325495 2.508006 7.064957
4.805293 1.381724 5.912608
1.880212 -4.633012 0.603553
-3.534317 3.536750 9.291631
4.921555 0.882213 4.598527
-3.928862 3.092579 7.212661
2.690452 -4.214436 0.714298
2.716671 4.197582 3.531457
4.997793 0.148555 0.952276
4.968111 -0.563800 5.989246
4.204017 -2.706703 4.691159
-4.732775 1.612712 7.961329
-4.998168 -0.135326 5.471847
4.129329 -2.819333 9.280430
-1.038788 -4.890902 8.006428
3.484181 -3.586152 4.219114
-4.839651 -1.256095 7.797130
-1.690764 4.705456 8.031560
-2.158772 4.509956 3.269378
2.943983 4.041406 2.895662
-3.662706 -3.403613 7.226012
-4.972675 -0.522014 7.271594
-0.442707 4.980362 7.558879
-4.791663 -1.428273 4.332879
-0.220079 -4.995154 9.603212
-4.969177 -0.554333 5.660514
3.909212 3.117381 1.407592
4.910998 0.939203 6.120533
-3.333705 -3.726448 2.130128
0.671921 4.954647 2.028918
2.063529 -4.554322 4.103566
4.744808 1.576960 5.109685
2.709487 -4.202223 0.761355
-1.921790 -4.615921 5.244340
4.826447 -1.305913 6.470807
-3.204541 3.838087 4.514711
-0.000718 5.000000 2.389110
-4.846786 -1.228277 6.420460
2.572503 -4.287450 2.203944
-2.810718 -4.135198 4.493919
3.227171 -3.819080 5.540147
-4.906643 0.961692 3.717370
-3.856874 -3.181906 0.540814
1.549244 4.753929 1.837011
-3.520313 -3.550689 8.641068
4.951842 -0.692290 5.060802
4.602351 1.954065 0.780094
-4.531171 2.113881 6.147755
4.314816 2.526334 9.993920
-2.156469 4.511058 5.525985
-3.447277 3.621641 5.385470
-0.198709 -4.996050 0.246686
-4.648337 -1.842001 2.237042
4.557624 -2.056225 4.457710
-0.710986 -4.949192 1.018141
1.959066 4.600224 6.709341
-4.621898 1.907370 2.690258
3.157880 3.876570 4.593297
4.112496 2.843832 5.196448
-2.526498 -4.314720 4.130473
-0.232730 -4.994581 2.562823
-4.943311 -0.750785 6.987272
-1.783719 -4.671011 3.089125
2.916141 -4.061542 0.114078
-4.966556 0.577338 8.523344
4.938300 -0.783064 9.749031
-0.929847 -4.912778 2.711049
3.586869 3.483442 5.679302
-3.706931 3.355393 2.062349
1.877385 -4.634158 0.193125
1.408746 4.797440 0.455347
-4.133712 2.812903 5.110250
4.413237 2.350178 7.396378
-3.255981 3.794547 1.957579
-4.343175 2.477262 3.378662
3.149932 3.883031 8.762608
4.954842 -0.670481 1.795196
-3.550158 3.520849 6.481540
4.579515 2.006999 4.980020
1.877422 4.634143 8.817737
-4.946249 -0.731181 4.171836
-0.337319 4.988609 9.287208
-3.512227 -3.558688 7.265145
-2.849413 -4.108630 7.034411
4.096680 -2.866568 9.650749
0.898109 -4.918679 7.524458
-2.784813 4.152688 3.586406
-3.284150 3.770194 3.532350
2.139779 -4.518998 3.562857
1.260045 4.838624 4.175352
-4.894613 1.021158 9.143365
1.623231 -4.729178 1.003607
4.408899 -2.358306 0.232710
-2.829809 -4.122157 8.163010
2.337678 4.419871 5.294498
3.674762 3.390594 2.658205
4.789187 1.436554 8.851677
2.744189 -4.179644 7.377509
-3.491781 3.578752 1.717016
-0.834257 4.929910 2.856547
2.860228 4.101109 5.662220
-0.564945 -4.967981 6.458140
-0.222262 -4.995058 4.389278
-4.767068 1.508330 6.382283
4.538504 -2.098090 4.321305
-2.414963 4.378122 1.321340
4.722256 -1.643258 7.969714
0.965191 4.905956 8.734195
-3.576767 -3.493814 8.877050
3.048390 -3.963246 1.964218
0.000029 5.000000 0.589760
3.604496 -3.465199 5.106606
4.696899 1.714393 1.261659
-2.342067 4.417547 2.981499
4.845790 1.232201 2.827475
-3.101051 3.922178 6.648479
2.272379 -4.453796 0.716052
3.759696 -3.296163 0.710951
4.999980 -0.014244 9.178416
1.114297 -4.874253 4.981600
3.452351 3.616804 9.973575
0.779777 4.938821 5.220786
4.844008 1.239188 4.314556
-0.039560 -4.999844 0.710345
-4.997189 -0.167640 5.216315
3.560849 3.510036 7.459615
-2.127200 4.524933 1.402431
4.444146 2.291193 5.611734
3.783445 3.268875 5.811270
-2.100801 -4.537250 3.820801
-3.350414 3.711431 3.910493
-4.092075 2.873138 7.634468
4.958784 -0.640669 8.260442
1.368429 -4.809096 0.276110
2.565744 4.291498 5.250431
-0.968028 4.905397 7.880175
4.272156 -2.597823 6.820654
1.204135 -4.852840 8.897199
4.500495 2.178427 0.704960
3.205666 -3.837148 6.210369
1.942184 -4.607377 3.921341
-3.974052 3.034289 9.493005
-4.359753 2.447970 9.256640
-3.597688 -3.472267 0.413707
-4.951559 -0.694307 7.299339
-4.992381 0.275924 4.944841
-2.761498 4.168228 8.040429
-4.671683 1.781958 0.848651
3.625848 3.442852 4.508232
-1.112859 4.874581 7.551751
-1.095137 -4.878594 0.677279
4.907612 0.956737 0.480257
-1.775798 4.674029 0.417504
2.176815 -4.501275 4.497313
4.749250 1.563529 1.591211
-4.959651 0.633929 1.536433
4.965686 0.584777 4.832045
-4.999881 0.034520 0.838331
4.499787 -2.179890 8.582786
-3.989430 -3.014042 9.777361
-2.894471 -4.077013 1.657099
4.154493 2.782120 3.517275
2.986558 4.010047 8.276662
4.340917 2.481218 6.411864
-2.832758 -4.120131 0.211744
-4.634080 -1.877578 2.214937
-4.511259 2.156048 7.661402
1.325010 4.821239 5.975507
-4.442382 -2.294612 8.709703
-3.118549 3.908280 1.959600
2.561034 -4.294311 3.876173
4.616904 -1.919427 8.603433
-4.193143 -2.723519 8.445791
-2.634936 -4.249366 3.057675
-4.842270 -1.245962 2.913414
1.219357 4.849038 0.210326
-4.807610 -1.373638 6.912836
-4.494791 -2.190172 9.138409
-3.285041 3.769417 0.871620
-4.666457 -1.795600 5.543206
-4.448064 -2.283578 2.593191
4.373897 -2.422607 3.396700
3.764476 3.290702 2.969326
4.574456 -2.018503 7.040778
1.926653 4.613893 8.423520
4.153560 -2.783512 5.694425
-1.298666 -4.828402 6.835890
2.681614 -4.220065 6.322843
-4.991720 0.287634 8.138362
3.352737 3.709334 0.078589
-4.361560 2.444748 2.817541
-4.996985 0.173613 1.901417
1.918981 -4.617089 7.117973
4.133278 2.813541 8.371448
4.586069 1.991977 9.395226
-1.263441 4.837739 5.183121
2.675375 4.224023 9.698064
-2.190531 4.494616 7.513554
-0.050495 4.999745 5.562313
4.762985 1.521175 6.362185
-0.200385 4.995983 0.678618
-4.915370 0.916043 9.897299
-4.661988 -1.807172 0.673043
-0.291183 4.991514 3.547361
1.037886 4.891093 6.936292
