4.944810 12.740849 -1.734677
4.482784 9.785356 1.704151
3.945844 15.070881 0.811099
3.982181 8.976387 2.426765
4.986429 11.631865 0.329397
-2.916925 7.939021 2.499950
-4.793530 10.578004 4.133497
-0.229355 16.994737 1.319280
-4.501596 14.176150 2.572940
1.108861 7.124507 2.385573
3.963409 8.951822 1.230414
-4.939269 11.223070 1.379951
1.806723 16.662162 1.767918
0.248352 7.006172 0.186367
-4.996481 12.187561 4.488571
-0.064540 16.999583 -4.795266
-4.606530 13.944191 1.736080
-3.059156 8.045058 -1.024420
-0.729655 16.946474 4.717562
-4.831927 13.285490 2.666099
-3.111956 8.086468 -1.540502
-4.838546 10.739653 3.555045
3.806744 8.758287 -3.902261
4.291790 14.565255 4.121258
-1.349080 7.185441 -0.085480
2.014642 16.576158 -4.433585
-4.999985 11.987577 1.466309
-4.886051 10.938632 2.023431
-2.852379 7.893428 0.493390
-4.806211 13.378528 2.208005
1.965461 16.597495 -1.169618
-2.099933 16.537652 3.071440
-4.867918 13.141653 1.641746
-0.713611 7.051186 2.109706
-2.800023 16.142448 -4.480934
4.930673 12.829738 2.785466
1.546786 16.754730 -4.570375
4.909868 12.945092 2.965886
3.878197 8.844119 -2.563375
1.939455 16.608526 -3.537314
3.381222 8.316613 2.015046
1.329343 16.820046 -2.286464
-4.655533 10.176263 4.730618
0.853472 7.073380 3.915151
-4.748617 10.434548 -4.697787
-4.993935 12.246198 2.736570
4.579808 14.006330 -1.647144
-3.293238 15.762258 -4.236742
0.811205 7.066244 2.945713
0.930181 7.087286 2.824944
4.840664 10.747813 -1.992782
-2.046695 16.561912 -3.727595
3.473602 8.403601 -0.667788
-4.999770 11.952073 0.570645
1.535076 7.241477 1.880342
4.948082 11.281331 -3.719791
4.724859 10.364241 -1.718857
4.421564 14.334475 -1.276952
-4.745872 10.426248 4.667248
1.879113 7.366542 -1.266814
3.250082 15.799601 1.974520
-0.697627 7.048907 4.604545
0.248891 7.006199 3.250650
-4.436919 14.305157 1.243300
-1.154335 7.135073 2.795453
-0.247588 16.993866 1.418187
4.968289 12.562235 3.698367
-0.211299 16.995533 -3.048317
2.370306 7.597541 3.451417
0.248512 7.006180 -3.548326
-4.528434 14.119738 -4.315612
-4.854136 13.198902 4.261534
1.029814 16.892799 4.588629
-3.147931 8.115347 -3.922521
-2.408725 16.381557 2.247960
3.882450 15.150648 4.897977
4.542620 14.089164 -3.920799
3.434853 8.366574 1.886777
-4.805474 13.381092 -0.386879
-4.987815 12.348858 -2.879523
4.225736 14.672669 3.565749
-3.130339 15.898843 -3.437018
2.050935 16.560007 1.357069
-1.733646 16.689826 0.060599
2.953734 7.965715 2.942896
-1.420906 16.793853 0.036361
-2.116235 16.530072 1.974642
-0.906523 16.917135 -3.361309
1.988182 16.587715 4.641402
4.998539 11.879157 -2.423265
3.407025 15.659532 0.531715
-4.312425 9.469587 2.041201
-0.238750 16.994297 2.615634
-4.777959 10.526531 -1.248283
-1.669624 7.287001 4.749319
-3.311450 15.746238 0.100722
-4.931337 11.174217 1.420899
-2.333808 7.578084 -1.346641
-3.843209 15.198398 -1.517496
-4.945067 12.739128 -0.545178
-2.322570 7.572171 3.191025
3.407532 15.659060 -4.805363
-1.490594 7.227356 -0.181111
0.152058 16.997687 1.005449
3.347862 15.713734 4.790346
-4.783777 13.454469 -4.142927
2.832154 7.879453 -4.121733
0.928572 16.913019 4.827308
-4.383389 9.594611 2.696076
4.238815 9.348124 1.368801
-4.794262 13.419525 1.678274
3.911149 15.114950 -2.808349
3.058601 15.955371 1.813693
-3.387180 15.677909 4.771762
-4.979057 12.457155 -3.629576
-4.887609 10.945828 -4.385973
3.962147 15.049818 2.720295
0.502638 16.974671 0.049525
-2.086277 7.456054 1.581424
4.841973 13.247116 3.740267
4.278908 14.586686 -1.774703
-1.796350 16.666168 4.753897
4.607476 13.941949 4.004296
3.311936 15.745809 -3.817568
-1.992879 7.414323 4.667991
-2.533908 7.689628 -3.168419
-3.827262 8.782538 -2.161452
2.725290 16.191991 0.961148
2.355994 16.410135 -3.063207
4.935153 12.802661 3.955054
-3.426552 8.358744 -1.888619
-4.986096 11.627375 -0.740744
-4.564344 14.041264 2.812390
4.996791 12.179111 1.698647
-3.885436 8.853035 -0.511832
3.629346 8.560836 -4.055124
4.635299 13.874568 0.351713
-4.593846 13.973975 3.665662
1.717028 7.304064 0.222529
4.115500 14.839482 -4.217396
-2.741162 7.818370 -3.884106
1.928943 7.387064 -3.788747
4.986203 12.371190 -4.093270
-4.087409 9.120228 0.574618
-4.494121 14.191547 3.966583
4.795703 10.585350 -1.134155
4.921779 12.880961 3.090228
-3.503867 8.433081 3.123078
-3.632440 8.564104 -3.127689
4.263899 9.388647 2.329725
4.864115 13.157750 -0.509299
-4.691692 13.728591 3.057652
-1.056917 7.112984 -0.667412
2.609554 7.735000 1.172150
2.678181 7.777756 3.661896
4.628031 10.107559 1.826038
4.120871 9.168318 -3.242312
4.778431 13.471935 -2.872580
-4.998782 12.110373 3.941602
4.102578 9.141879 0.864607
4.999835 11.959400 4.560516
-4.041413 14.943974 1.031700
2.357466 7.590651 -3.679522
-2.152735 16.512841 -0.942372
-1.798820 16.665217 4.140483
3.188065 8.148216 -0.632975
-3.315626 15.742542 -4.473524
-3.960269 8.947744 -1.477316
-4.364612 14.439296 0.755102
4.505468 14.168124 0.312439
3.721682 8.660976 4.881862
-4.889564 13.045068 1.366692
3.386567 8.321527 4.240358
-4.957845 12.647900 1.954252
-4.730896 13.618216 -1.581827
1.596882 16.738140 -4.396504
-0.019556 7.000038 4.439501
2.905118 16.069434 -4.780519
3.776642 15.276733 -2.663771
3.663041 15.403253 -2.739968
-4.832212 13.284417 1.298538
-4.958289 11.355511 4.600692
-2.215438 16.482391 1.470146
-2.205163 7.512545 1.736356
4.999019 11.900983 2.114251
4.926261 12.855543 -3.006232
0.277500 16.992293 0.620964
0.418063 16.982492 -0.126876
4.086392 9.118785 4.285169
1.909146 7.378835 2.515495
4.713818 10.332692 3.058851
-3.358352 15.704250 -2.067793
-4.312964 14.529494 -0.254828
1.986892 7.411726 1.894282
-4.675590 10.228316 4.052043
0.378690 7.014361 -3.885747
-1.240259 7.156266 4.941731
4.085016 14.883166 -0.146245
-2.107413 16.534182 -3.685355
-1.902877 16.623750 0.868631
2.361046 7.592567 3.706595
4.927392 11.150997 3.229658
1.769572 7.323611 -0.160947
4.752769 13.552798 1.823589
2.286313 16.446659 -0.025883
2.506900 16.326136 -1.965991
2.793744 7.853315 -0.351364
-2.999789 7.999842 -4.799946
3.606434 8.536817 1.546996
0.277976 16.992267 -0.026909
-4.473962 9.767588 -2.213485
-4.400046 14.374784 4.268886
2.837470 16.116888 2.745009
4.685318 10.254206 2.050730
4.680923 13.757545 0.652659
0.624333 7.039132 -0.682186
-4.923170 11.126844 4.782458
1.017930 16.895285 -4.566062
-1.679154 7.290388 -0.493798
-3.272012 15.780733 0.507545
4.964358 12.595946 -1.223056
-1.169866 16.861215 -2.494944
-1.452726 16.784306 -1.193609
-4.045038 14.938991 -0.513678
2.146292 16.515909 0.970588
0.351624 16.987621 -1.777165
2.096514 7.460768 -4.251125
-1.757056 16.681106 -2.816781
-0.610836 16.962548 -0.363348
-1.695368 16.703799 -3.732163
3.963231 15.048410 4.176447
4.706449 13.687998 1.766269
1.791342 16.668093 4.924016
-0.748873 7.056399 0.140050
-3.451354 8.382245 -2.888545
-2.368533 16.403414 -1.210983
4.390730 9.608036 1.851650
3.993871 15.008155 4.349826
-3.782173 8.729653 3.739978
2.246437 7.533064 -3.422433
-0.256337 16.993425 4.773104
-4.688799 13.736424 -4.850480
0.713970 7.051238 2.264893
0.136397 16.998139 0.695659
3.360580 15.702229 -2.551310
-0.284613 16.991893 -0.652287
-2.002133 7.418356 -4.455668
-4.207304 9.298410 -4.029933
-4.779511 10.531573 -0.279380
4.741455 13.587011 1.744582
2.940831 7.956299 -4.922477
-4.969740 12.549253 -3.588493
0.285440 16.991846 -1.433679
-3.748505 15.308883 2.359515
-1.553747 16.752459 -3.253713
-1.803813 16.663289 -4.318931
-3.043873 15.966716 0.153302
-1.162725 7.137072 -0.029723
0.855223 16.926317 -1.988060
4.581724 14.001950 -0.135804
0.644304 16.958314 0.898858
-3.986506 8.982092 0.306890
-4.969051 12.555453 -1.360241
-0.739097 7.054928 -1.767876
-2.064772 7.446242 0.357134
3.405178 15.661252 -3.358469
0.218680 7.004784 -3.608695
0.860488 16.925400 2.635606
-0.694797 16.951490 1.806726
3.074366 15.943130 0.820709
-3.852175 15.187593 -1.612708
4.999942 11.975932 -1.984438
-2.987233 7.990457 2.647958
-1.878389 16.633752 1.216343
2.113716 7.468753 -4.696930
3.968804 8.958850 3.422449
-4.109911 9.152435 -1.857374
-4.938135 11.215893 0.699151
4.913788 11.075509 -4.629647
4.860779 10.828324 3.842232
2.904915 7.930421 -4.254268
-4.754104 13.548706 -1.776835
-4.854002 13.199444 4.949338
4.479953 9.779636 -3.953626
2.285624 16.447013 1.768184
3.130570 15.898658 2.999298
2.456735 16.354820 -4.480032
-1.525880 16.761480 3.397582
-1.077423 7.117464 -1.326979
3.680356 15.384520 0.888462
-4.760068 10.469722 3.022266
1.007401 7.102537 -0.622599
-4.928162 11.155479 1.380854
4.946125 11.267986 -2.617449
3.265084 8.213283 -0.103966
-3.776628 8.723252 -0.124728
-0.538662 16.970900 2.786809
3.690491 8.626533 1.953163
-4.519646 14.138410 -0.788790
-2.056684 16.557417 1.298962
-2.938788 16.045185 -0.868423
1.050631 16.888371 3.868958
3.382738 8.318006 -1.522544
4.641165 10.140003 -0.136899
4.276622 9.409536 3.394106
-2.057323 16.557129 1.633125
-2.183928 7.502172 0.802803
3.482231 15.588045 -3.780449
0.411157 16.983066 -3.765577
-4.795577 10.584923 -4.754741
2.047491 16.561555 1.090480
2.477626 16.342968 -3.726658
-2.074746 7.450777 -4.430117
3.152385 8.118961 3.214780
1.615654 7.268228 1.922311
1.673595 7.288410 3.084868
4.533387 9.890876 -4.072235
2.222359 16.478964 0.559761
3.577620 15.492941 1.513728
4.929035 11.160590 0.452657
1.295854 16.829158 4.968793
-0.190966 16.996352 0.479749
-3.143144 8.111473 1.005655
0.466698 16.978172 1.384023
-4.949429 11.290667 1.549091
-3.204242 15.838338 0.709313
-0.869458 7.076176 3.095187
-1.913989 7.380839 1.003269
3.425095 15.642626 2.107448
-4.611669 10.068030 3.535255
4.874758 10.887913 0.634510
3.904520 8.876745 3.947005
4.275894 14.591666 2.735251
-0.924184 16.913846 4.185356
-4.529965 9.883536 -1.269214
3.625772 15.442931 2.916818
-4.049687 14.932582 3.039379
2.740610 16.181992 3.508416
-1.982933 16.589987 2.136268
-4.895864 13.015142 0.925586
0.077081 7.000594 2.868048
-1.810323 7.339235 -4.411034
-3.251589 8.201689 -1.843112
-4.993985 11.754812 -2.749698
2.079589 7.452989 1.536929
4.198870 9.285319 3.264489
-3.750370 15.306770 -2.018289
-3.735140 15.323963 -0.544217
-4.611327 10.067213 -4.423005
-4.780087 10.533449 -2.046291
-1.715299 16.696568 -2.052822
-3.968059 15.042122 -1.118430
-4.709030 13.680785 -2.586397
2.403148 16.384618 -4.461349
-4.517606 14.142718 -2.659753
-4.447634 9.715586 3.300159
2.274406 7.547239 3.774077
-2.834648 7.881169 -4.930994
-4.691600 13.728842 2.031601
-0.746254 16.943997 -1.984472
-4.460754 14.258688 -1.968209
-4.723669 13.639193 -4.672314
3.249095 8.199555 -0.181787
2.907882 16.067459 -3.589660
-0.636512 16.959320 2.985524
-1.676970 7.289610 -4.975171
-4.293876 14.561762 -0.180733
4.992890 11.733455 -4.390132
4.672776 10.220910 -4.786488
1.268402 16.836440 -1.010777
-2.797708 7.855988 -0.322285
2.678387 7.777887 -1.548621
-0.377303 16.985744 4.496444
2.847829 16.109729 4.431787
-2.065339 16.553502 -2.970475
2.753970 7.826794 -0.461524
0.132926 16.998233 -3.409595
2.906679 16.068319 -1.432271
-4.791505 13.428804 3.404009
-4.197093 9.282573 0.384626
-2.162731 16.508059 -4.007347
4.133375 9.186602 -4.450335
0.668765 16.955073 -4.384050
-2.992385 7.994300 -4.976667
1.815832 7.341379 -2.780693
1.014381 7.103978 -4.710242
4.289805 14.568575 -0.556839
1.004815 7.102006 0.172914
-3.943033 15.074490 4.737827
-4.544515 14.085039 2.247634
-1.723829 7.306556 0.054785
2.262280 16.458934 0.200835
0.113317 7.001284 -4.251596
-0.952172 7.091500 -2.268488
-3.526975 8.455928 -4.515044
-2.964263 7.973445 2.610661
4.977078 12.478220 -3.385550
-4.924670 11.135347 3.486384
-4.399883 9.624916 -1.786770
1.816285 7.341555 -2.714133
-2.855772 7.895787 0.745654
4.999959 11.979808 3.064277
1.767895 16.677023 -2.556752
-3.255407 15.795040 -4.742136
1.797998 16.665534 1.491565
4.590743 13.981181 4.449531
1.158994 7.136181 0.277445
0.273483 16.992515 -0.830739
3.903445 15.124598 -3.215153
4.609258 13.937715 0.854106
-2.630530 16.252095 0.616524
-3.326030 15.733299 3.172195
1.931458 7.388116 -3.477227
-0.610916 16.962538 2.463313
-3.101997 8.078570 3.027050
-4.959364 11.363835 2.409623
0.565014 16.967973 1.202339
-2.701483 7.792627 -2.883596
-4.481355 14.217535 -4.462653
4.708721 10.318349 3.833915
2.516588 16.320508 -0.538204
-4.050064 14.932061 2.055989
4.069170 14.905487 1.207199
2.948323 7.961759 -3.362146
4.355857 9.545105 -4.934080
4.813951 13.351251 2.438158
-4.663478 13.803322 -1.638454
4.556042 14.059729 1.632364
-3.074754 15.942828 4.702411
-2.025406 16.571404 -3.230309
-2.913057 16.063754 4.303476
2.641084 7.754452 -2.651454
1.369812 16.808702 2.862654
4.860835 10.828556 -2.715800
-2.747416 16.177524 -3.595024
-4.223011 9.323029 -4.203694
4.805889 13.379648 4.246465
4.448343 14.283034 3.448778
2.461408 7.647820 4.993109
-2.242545 7.531108 2.877747
4.499823 14.179815 2.074802
4.702152 10.300069 -0.360035
2.658576 7.765384 -1.403165
3.354735 8.292473 4.946448
2.176142 7.498399 4.574129
-0.030445 7.000093 4.385134
-4.841839 10.752366 4.731959
-2.598056 7.727986 4.119678
1.811632 16.660257 4.244406
4.023666 9.031816 -1.226070
4.991837 12.285588 0.273405
-3.898327 8.869018 1.560060
-4.529245 9.881996 -1.788664
4.225798 14.672570 -0.491712
-1.779758 16.672522 3.478019
2.223148 16.478573 1.022144
-1.327885 16.820448 4.748400
-1.229731 7.153583 -0.153223
4.829168 10.704185 -2.076673
-1.292387 7.169914 -0.219157
-0.836297 7.070435 -0.522582
-4.868818 10.862190 -2.682054
-0.272701 7.007442 0.783862
-3.687128 8.622858 -0.333823
-4.726068 10.367738 1.367581
-4.154500 9.217892 -1.237431
-4.745744 13.574138 0.132436
1.602833 16.736130 4.375932
-4.464846 14.250589 2.515534
-4.857131 10.813292 -4.655475
3.258066 8.207243 2.599376
-0.452881 7.020552 1.137291
1.694126 7.295753 1.182130
-4.999992 12.009218 1.413619
-2.400176 7.613754 3.371984
-3.918446 15.105765 -2.235456
-0.858228 16.925794 1.716703
-1.709285 7.301240 -2.061618
-3.234321 15.813026 -1.470278
2.388073 16.392847 -3.878774
3.385167 8.320239 -1.678809
4.969777 11.451080 1.262650
4.893792 13.025084 0.928950
-4.604283 13.949508 2.926610
-4.682798 13.752541 -2.994734
-4.847376 13.225945 -1.723498
-1.707682 7.300657 -4.982455
-1.363612 7.189536 -4.935288
4.641318 13.859614 2.955194
-3.230196 15.816521 0.718837
1.951565 7.396589 -1.006450
0.872798 16.923233 -3.757229
2.575909 16.285405 0.442413
4.489882 9.799782 -4.983726
-4.886003 10.938410 4.387647
3.525260 8.454222 -1.851579
-4.998327 12.129319 -3.048353
2.013801 16.576528 -0.266636
-4.976699 12.482147 -3.885083
2.086987 16.543620 -4.649140
3.689685 15.374348 2.673336
-2.005629 16.580115 0.174836
-0.671356 7.045277 -3.519432
-3.452759 15.616414 2.100596
-4.824147 10.685617 2.364496
4.535397 14.104799 4.201294
0.474255 7.022543 -1.299206
-0.741168 16.944762 3.399310
-4.209666 14.697909 0.578399
-4.668914 13.789202 -3.266394
-4.247916 14.637273 3.756264
0.855785 7.073781 -3.038006
-1.493909 7.228393 -0.364361
-0.361717 16.986899 -2.239175
4.487217 9.794353 -0.105959
4.567199 9.965130 -2.719773
-4.952421 12.688132 3.965518
-4.635964 10.127078 0.284945
-3.490648 8.420143 2.668636
4.809851 10.634227 0.226942
-4.256205 9.376126 -3.557521
-4.892398 10.968280 -2.445497
-3.331715 15.728227 2.926655
3.384468 15.680404 -3.730820
4.555098 9.938186 -4.726838
2.295896 7.558282 2.009577
-3.312858 15.744993 -1.907911
1.434099 16.789923 -4.649456
4.035890 9.048460 4.546587
4.487494 14.205085 0.183010
1.003411 7.101718 1.421989
-3.368679 15.694862 -0.810135
-1.098807 7.122232 -3.948735
-1.638956 7.276249 -3.878515
-0.890112 16.920132 2.683353
3.661650 8.595250 -3.451902
-4.998629 11.882918 -2.211538
-4.998150 11.863994 4.272265
0.069701 16.999514 2.759377
-1.821065 16.656579 2.939609
4.526644 9.876443 -2.017518
-4.355256 14.455962 1.566629
-0.573119 16.967045 1.073842
3.531963 8.460899 -3.054357
3.434828 15.633450 -3.925010
-1.299151 16.828271 3.872297
0.247093 16.993891 -4.501330
2.869676 16.094504 4.646877
4.534113 9.892437 0.236567
4.567836 14.033439 -4.553777
4.386280 9.599885 -1.232993
4.919995 12.890867 -0.904689
0.507447 16.974183 -3.275693
-0.385259 7.014865 3.612872
-0.248773 7.006193 -4.050609
-3.327020 8.267583 1.416898
4.907325 11.041793 -1.075626
-4.058737 14.920044 -2.758913
3.932396 8.911916 2.236847
-2.177636 16.500878 -0.340672
2.774469 16.159606 -2.745138
4.927649 11.152492 -3.176523
0.562645 7.031758 4.105447
-3.629283 8.560770 -4.283262
4.702069 13.700160 4.436027
-4.977241 11.523477 -0.524120
-1.189655 7.143590 0.646712
0.628715 7.039686 2.055249
4.997500 12.158091 3.687683
-4.522524 14.132318 -1.703242
3.843832 8.802352 2.245378
-4.566417 14.036624 1.020092
2.896499 7.924427 1.780397
3.549261 8.478247 -4.458601
3.598215 15.471722 -1.538717
4.946663 11.271627 -1.668983
-3.283364 8.229122 3.823015
-0.301072 7.009073 -4.329527
2.187381 7.503850 -4.923180
-1.967909 7.403552 -2.191529
1.164543 7.137507 -0.364704
3.955355 8.941379 -3.173930
-4.353280 14.459462 1.171433
-4.903541 12.977385 4.322955
3.657458 15.409252 0.741175
-3.111808 15.913649 3.328798
-0.789230 16.937319 4.678793
-4.525571 14.125843 -0.862581
-1.547420 16.754523 0.117362
-1.050144 7.111524 1.435016
-4.562949 14.044382 0.339940
-4.261798 9.385219 -4.481613
3.789126 15.262288 -2.257740
2.486866 16.337683 -2.248385
-2.816477 7.868722 -1.058896
-3.080970 8.062028 4.554770
3.047316 8.035928 0.859184
-3.120370 15.906826 -3.023198
-1.498849 16.770058 3.567256
1.032936 7.107859 -4.844302
4.628157 13.892132 4.223266
-2.221131 7.520427 -1.477963
-4.879389 10.908413 -1.984473
-4.759133 10.466815 2.736554
3.036378 15.972456 -3.744786
-0.285941 16.991817 -2.962481
-4.562093 14.046290 2.037099
3.932236 15.088287 0.374846
-0.579478 7.033693 0.057040
-4.962622 12.610233 -0.133510
-4.667432 13.793064 4.252196
4.079528 14.890925 0.579103
-1.260563 16.838489 2.541703
-3.250698 8.200926 0.186394
3.913267 15.112289 -2.694072
4.953602 11.320423 -3.142907
-4.005756 9.007690 -1.747311
-3.710139 8.648154 -2.819106
4.999081 11.904154 2.781782
4.757012 10.460246 -1.811045
-2.916209 16.061493 -1.793669
3.988697 8.984988 3.314979
3.812119 15.235390 2.574419
0.248848 16.993804 4.479138
-3.168002 15.868303 3.419381
-4.349420 14.466282 0.762466
1.625021 16.728563 4.885950
-0.125085 16.998435 -0.547308
-1.542114 7.243753 1.657553
-2.518079 16.319639 0.714898
2.459478 16.353271 3.064967
-4.765315 10.486141 -1.146321
4.448237 9.716760 -0.800539
-4.928919 12.840094 -0.271905
-1.497975 16.770332 -3.895480
0.634188 16.959617 -0.863043
4.913397 12.926570 -4.820631
4.795295 13.416031 4.267308
3.304941 8.248019 -1.292683
-4.829425 13.294856 -1.703033
-1.682189 7.291472 0.930148
4.508043 14.162764 -4.761817
-1.637649 16.724204 -2.508137
-4.855083 10.804941 -1.618040
-1.836954 16.650333 1.251024
4.992051 12.281834 -2.217939
-1.078344 16.882333 -0.930465
-2.138400 16.519651 4.203274
2.403343 16.384512 2.731349
4.520916 14.135724 -3.317795
-4.356067 9.545478 -0.148623
-3.392344 15.673146 1.075921
-1.109246 16.875405 0.661573
0.905921 16.917246 -3.701383
-4.996968 11.825887 4.933302
2.793447 16.146885 -0.915095
3.548224 15.522798 -1.309465
0.602813 16.963529 -4.657888
-4.308287 9.462547 3.124223
1.271942 7.164489 -0.702676
4.764756 13.515618 -3.119358
2.847761 7.890224 -3.907767
-0.534719 16.971325 4.123448
2.408554 16.381651 1.631639
-4.406742 14.362334 3.138082
-4.049684 14.932586 -1.656020
2.409886 7.619081 -1.805580
3.379011 8.314585 -1.598523
-1.153711 7.134925 1.382943
-2.855133 7.895342 3.863229
1.989808 16.587011 0.912980
3.822287 8.776629 0.306555
-2.884792 7.916133 0.551312
4.644799 10.149098 4.765902
-1.633896 16.725504 2.063608
2.599074 16.271395 -0.900045
-4.447930 14.283839 -3.042273
-1.354997 7.187102 2.754260
4.574134 9.980768 -3.989317
3.998799 15.001601 -0.725277
4.966645 11.423426 -3.391021
4.666244 13.796153 0.308957
1.326873 7.179273 0.479448
4.988948 12.332267 -3.409664
-4.957048 12.653972 -2.538484
4.927372 11.150879 1.126850
-4.709360 13.679858 0.464490
3.249649 15.799972 0.342268
4.445073 9.710605 2.172242
4.155752 14.780239 -2.272789
3.559000 15.511911 -0.263751
0.878964 16.922136 -1.333314
-4.139010 14.805101 3.693967
3.309461 15.747995 -4.065967
-4.733138 10.388354 -3.018119
1.067854 7.115362 -1.660170
4.009771 9.013072 -1.275074
-2.023607 16.572200 4.365351
4.520106 9.862562 -1.186615
2.953601 16.034382 -3.697977
-3.648081 8.580716 2.889220
-4.139432 14.804479 1.703881
-3.666550 15.399472 3.402157
-3.558650 8.487735 3.080570
4.857793 13.183995 -3.318153
-4.170980 9.242659 2.757295
-0.690381 7.047892 2.755654
-0.606149 7.036878 2.143746
1.656295 16.717699 1.390983
4.589849 10.016749 -3.102912
0.911046 7.083701 2.579003
-2.591265 7.723863 -1.988659
4.258529 9.379898 -2.245586
-4.998949 12.102501 0.652007
-4.966351 11.420902 4.087751
-1.799498 7.335045 4.651263
1.721013 7.305523 -3.968847
3.011748 8.008838 -2.220967
4.672812 10.221004 -0.230259
4.896061 10.985810 2.920455
-3.203078 15.839308 0.728868
4.821379 10.675498 -1.918725
-3.309963 8.252448 2.042811
2.633579 16.250207 4.587600
4.166500 14.764105 4.127658
-4.516578 14.144884 -2.357195
3.172405 8.135308 1.250623
-1.508105 7.232861 -3.652979
-4.945749 12.734550 -4.074163
2.117662 7.470595 0.158121
4.780652 13.464707 3.142650
3.676426 8.611211 -1.700156
2.939401 7.955260 4.994461
-4.972052 11.472081 4.510815
3.447665 15.621271 -4.037930
-4.982748 12.414996 1.310593
-2.722357 7.806103 2.205195
-4.867103 10.854877 0.760248
4.131783 9.184264 -0.267146
0.631474 7.040036 -4.635206
-2.801741 16.141286 -0.772187
-4.943508 12.749485 3.548962
-4.717177 13.657781 -0.986036
-1.767400 16.677210 -0.559261
-2.934919 16.047993 -3.757351
4.253985 14.627472 -0.594606
-4.952019 11.308982 4.488068
-2.408741 7.618452 -1.153805
3.508296 8.437436 -4.240231
-4.505939 9.832856 -1.755160
4.997551 11.843519 0.174974
3.981967 8.976105 -2.313137
4.903826 11.024044 0.133943
-4.422877 14.331986 4.594244
-4.729702 13.621703 2.383677
0.638325 16.959087 3.248724
-4.821567 13.323818 0.967104
-2.087529 16.543371 1.607334
-4.955047 11.331042 -2.064481
-4.094353 14.869891 3.328828
-4.999993 12.008593 -0.015325
-4.600192 13.959141 -2.349734
1.454106 7.216113 4.536945
2.253481 16.463387 -2.303849
3.813962 8.766783 4.769887
0.957809 7.092597 3.089845
-3.499647 8.428940 4.352023
2.558122 7.703954 4.012349
4.998960 12.101967 3.517152
-4.823128 13.318117 -3.219686
-0.425571 16.981856 -1.930366
1.958020 7.399331 2.191160
-4.489753 9.799519 -2.276939
1.881358 16.632547 -4.391539
4.999962 11.980406 -2.165671
4.990481 11.691619 -3.659454
-4.764616 10.483943 -2.576539
4.008974 9.012002 -0.137060
0.802595 7.064836 -2.538403
4.948471 11.284015 -4.862535
-4.886644 13.058636 1.898393
4.427212 9.676254 0.733870
-3.708600 15.353548 0.373893
2.102392 16.536513 -1.914265
4.995839 11.796054 0.510453
-3.706640 8.644285 -1.255126
-4.005035 14.993275 -2.856929
-3.883561 15.149278 1.075288
-0.211281 16.995534 -1.771937
-2.805460 7.861233 1.171035
1.992910 7.414336 1.208313
1.059656 16.886423 -2.574429
1.521595 16.762851 4.041389
-4.753750 13.549795 2.886654
2.739047 16.183016 2.041229
4.627333 10.105855 -1.196157
4.891713 13.034962 2.050563
-0.890555 16.920052 -3.805903
-1.477890 7.223407 0.956543
-4.839118 10.741852 0.828542
4.990957 12.300576 4.577173
1.604426 7.264410 4.741719
3.404101 15.662253 0.514544
1.352115 16.813708 1.078115
-4.122401 9.170547 -0.047185
-4.373715 14.422936 1.013935
-2.823781 16.126289 2.033980
2.722222 7.806015 -1.075548
-4.839132 10.741905 1.235498
4.926144 12.856216 2.775138
-4.588223 10.012990 -1.274579
4.987773 12.349457 4.753661
-4.999735 12.051462 -4.171813
4.025883 9.034824 4.492595
4.415989 14.345003 1.236755
0.379110 16.985607 4.641266
4.543772 9.913343 4.601404
2.452026 7.642527 -2.573021
-3.469490 8.399633 -3.029581
-0.898101 7.081320 -3.680962
-4.494819 9.809885 -2.071488
2.819173 16.129439 -3.387025
-4.273339 14.595877 -4.821213
4.827195 10.696854 4.073389
4.732267 10.385798 2.427710
3.360786 15.702042 -4.471821
3.147945 8.115358 -1.761785
4.091266 14.874289 -2.117505
-0.061230 7.000375 -2.699792
4.988314 11.658349 0.291351
4.466240 14.247821 3.499263
2.872335 16.092639 2.910438
4.269445 14.602275 3.327955
-2.823571 16.126433 1.431155
3.933944 8.913889 -2.695306
-0.263591 16.993047 -1.355612
4.270453 14.600621 0.681615
-1.209814 16.851428 1.508939
-0.416776 16.982600 -0.936619
2.700568 7.792039 0.014654
0.103235 7.001066 0.865814
-0.881379 16.921704 -2.321960
-0.917281 7.084861 1.597114
-4.078955 14.891734 -1.449258
-2.656516 16.235909 -2.378045
2.789258 16.149704 -3.547757
-4.332187 9.503571 -3.850554
1.614466 7.267823 2.364321
0.101497 16.998970 -3.673824
-3.919044 8.894989 2.215389
-3.171830 15.865164 0.725825
4.196078 9.281006 2.507698
-4.969281 11.446608 -0.120521
-0.111008 7.001232 -2.181961
-4.963668 12.601665 4.203305
3.390763 8.325394 0.132352
-3.255067 8.204669 0.114147
-4.052519 14.928667 3.171945
-1.776331 7.326174 3.949318
-3.226765 15.819423 -2.982233
3.271795 15.780920 -2.845726
1.774646 16.674466 0.421433
0.679453 7.046381 2.282818
-4.144925 9.203645 0.879706
4.919466 12.893787 -1.009844
-4.935100 11.197014 -1.752305
3.510978 15.559920 -2.982863
3.316951 8.258631 -3.339573
4.131150 9.183335 -2.382066
3.385809 15.679171 0.789577
4.131854 9.184368 3.386874
0.413730 7.017147 3.643221
1.854017 7.356443 2.304330
4.815130 10.652957 -0.761521
3.630867 15.437558 0.120938
-3.235666 8.188116 -1.549024
4.693515 13.723635 0.667732
4.935545 11.199752 3.643697
4.845601 10.767055 -2.885815
-3.869486 15.166557 0.959901
-4.788233 13.439730 -1.921332
-1.818991 7.342611 4.465850
-0.672734 7.045464 -3.201461
2.659088 16.234295 -4.454626
4.971082 11.463023 -2.093541
4.603969 10.049750 1.199548
4.534692 9.893683 -2.616900
-1.793772 7.332840 -0.133850
2.631432 7.748463 4.723251
2.591858 16.275777 0.400228
-1.562657 7.250463 1.444421
-4.879405 10.908483 -2.100802
-4.483630 14.212931 -3.898979
4.639432 10.135684 -0.636860
-3.783127 8.730758 -2.612218
-0.121327 7.001472 2.961997
-4.102593 14.858099 4.925163
0.527138 7.027865 -2.732482
-3.748769 8.691415 -0.272643
0.454875 7.020734 -4.275688
4.743723 13.580220 3.628460
-0.442832 7.019649 -1.070794
-1.185149 16.857512 -1.951305
4.870387 10.868923 -2.970443
0.825992 16.931302 3.020943
4.689319 13.735017 -3.000197
3.473096 15.596888 0.318568
2.293036 7.556805 -2.213031
-4.479893 14.220486 -3.690464
4.934545 12.806388 3.589117
0.008103 7.000007 0.919389
4.545763 9.917685 -3.225182
4.740565 13.589669 2.888948
-4.993163 11.738613 -0.092337
-4.378415 14.414431 1.484585
1.000183 16.898942 -3.966129
2.127380 16.524849 -4.183955
-4.893011 10.971193 -0.422122
-1.220763 7.151316 0.519447
4.041067 14.944449 -4.138865
3.763970 15.291281 4.677375
-4.997837 12.147057 -4.759478
-4.990741 11.695862 1.010499
4.285587 9.424395 -2.127287
-4.449838 14.280118 0.131907
-0.821723 7.067985 -3.067500
1.161221 16.863288 -4.472873
1.821882 7.343741 -3.976807
0.163410 7.002671 2.272741
4.276630 9.409550 2.969925
-4.681159 10.243084 -0.219960
-1.113285 16.874484 -3.717678
4.406461 9.637142 1.245221
-4.432564 9.686479 -4.155130
-2.374554 7.599830 -1.059712
-0.081562 7.000665 -3.378569
4.454336 14.271319 2.171994
-3.347184 8.285654 -3.457618
-2.957747 16.031344 -1.358426
-3.740304 15.318151 -1.480175
4.671267 13.783049 -2.369146
4.990686 12.305041 -1.509163
-3.423193 15.644414 -3.581378
3.373918 15.690078 -4.983443
0.480614 7.023153 4.601602
2.762476 16.167581 1.948456
-0.518656 7.026973 -4.368652
1.959703 7.400047 3.046902
-4.981713 12.427246 0.754466
-0.683941 7.046998 0.626014
-4.997950 11.856821 -1.177795
4.655166 10.175328 3.734713
2.712058 16.200564 2.991485
4.682188 10.245830 -1.281249
-1.992253 16.585949 -0.039510
3.298687 8.242519 2.541666
-4.997852 12.146531 0.652474
0.049473 16.999755 -2.605765
-4.973965 12.509582 3.983478
-0.666781 7.044659 -0.894056
4.765674 13.512729 0.861843
-0.310712 7.009664 -4.449268
-2.565437 7.708318 -1.530493
0.711581 7.050894 3.537999
-1.611114 7.266681 1.584421
-4.994752 12.229016 -1.937433
4.714805 10.335484 4.829770
-1.196796 7.145345 0.297789
1.526612 7.238755 1.608921
-2.813868 7.866945 -2.279274
3.701204 8.638291 4.830920
-2.162404 16.508216 -2.393832
-1.839429 16.649355 1.455308
4.989401 12.325388 -2.284460
1.668352 7.286551 0.196992
1.721038 7.305532 4.600017
4.033724 14.954500 -3.293844
0.362798 16.986820 -0.369786
2.802717 7.859375 -1.284724
-4.251204 9.368030 1.516947
1.641180 7.277021 -0.367322
0.485813 7.023657 4.516633
-4.174943 9.248664 4.030514
4.975175 12.497632 -2.926919
-2.830460 7.878290 3.195935
-0.866713 7.075692 -4.793874
-4.989237 12.327886 -2.206000
-4.510018 14.158642 -2.430242
-1.251012 16.840968 -0.498124
-1.553665 7.247514 -4.403707
-4.411668 14.353122 4.039563
3.705050 8.642530 -1.155997
-0.539735 16.970783 2.556827
-4.716970 13.658371 -1.786127
1.196707 16.854677 3.969686
-3.392642 8.327129 -3.282186
-2.916987 16.060934 3.983270
-1.310149 7.174701 -1.518311
2.587963 7.721864 4.496490
-4.723251 13.640398 0.826238
