-4.991754 12.287038 -0.014214
4.494056 9.808320 0.962161
-4.604350 13.949348 -4.887048
1.289718 7.169200 -3.844056
3.282698 8.228542 -2.427610
-2.067712 7.447576 4.502212
3.360305 8.297521 -4.772564
4.591118 13.980312 2.499462
1.289821 16.830772 -4.481967
3.601959 15.467837 -1.015111
-0.862056 7.074875 0.057759
-4.953298 12.681792 0.173555
4.748335 13.566307 -2.149048
-0.947436 16.909416 0.076809
3.613814 15.455481 -0.175148
-4.243276 9.355268 -0.293928
-4.839424 10.743030 -4.007648
4.185341 14.735492 -1.545129
-1.510987 16.766227 -4.699129
-4.962558 12.610752 4.929235
0.429712 7.018499 3.898161
3.648925 8.581616 -2.018689
-4.997957 11.857079 -1.289728
0.556437 7.031059 3.196127
-2.233350 16.473494 2.520037
-0.039530 16.999844 -0.728368
4.757277 13.538933 -3.935904
2.024308 16.571890 1.807411
-4.375862 14.419056 4.709800
1.118311 16.873334 -2.248317
-0.680239 7.046489 4.479676
-4.877054 13.101971 -3.208298
-2.245605 7.532645 4.681744
-4.976454 12.484675 2.214842
2.617115 16.260365 -2.631166
1.817721 7.342115 1.047887
4.967623 12.568083 1.686520
4.900185 11.005923 -2.617333
-3.935389 15.084269 3.135629
4.854657 10.803210 3.449513
-4.313060 14.529331 -1.776188
-4.953914 11.322701 1.945419
-2.492845 16.334250 3.179577
4.716089 10.339124 4.267186
-4.877110 13.101726 1.981729
-0.774789 16.939605 0.911940
-3.642409 8.574675 -2.934197
2.906580 7.931611 2.694490
-4.060030 9.081755 2.495575
-4.230674 14.664845 2.973853
-4.495415 9.811109 1.640051
0.859025 16.925655 -4.300619
-4.899024 12.999780 0.928757
3.801681 15.247649 2.765753
-2.624351 7.744089 -0.597949
-1.553842 7.247572 -0.121373
4.806366 10.622015 -0.892672
1.556249 16.751641 -4.647252
-2.736809 7.815520 -0.392052
1.808804 7.338645 -2.204807
-4.443938 14.291596 -0.031363
-4.451421 14.277027 -4.125771
0.711544 16.949112 0.728751
-2.780673 16.155461 -1.919909
-3.081466 15.937584 0.243178
-1.312822 16.824572 2.605783
4.985497 12.380549 -3.264978
3.835869 15.207197 -4.495798
4.031630 14.957357 2.563064
-2.686784 7.783225 -2.376386
0.867908 16.924097 -0.461012
-0.704894 7.049937 4.126024
-4.905941 12.965270 -2.363013
3.397789 15.668110 2.235782
3.406934 8.340382 -3.953975
-4.148456 9.208887 2.397377
3.676270 15.388958 -4.033925
-4.675922 13.770807 4.152182
1.778744 16.672908 3.471522
-4.582341 14.000537 2.756733
-4.703691 10.304332 0.683320
1.621739 7.270310 3.740112
0.921766 16.914300 -0.450424
1.513383 7.234533 -0.139835
4.999001 12.099956 -3.742266
4.534664 14.106378 -3.762512
4.315133 14.525792 0.755305
3.953077 8.938435 -3.930785
-4.809523 10.633074 1.203148
2.034563 16.567335 1.031474
3.855352 15.183750 1.231269
4.961067 12.622747 1.537646
4.897260 10.991611 -1.646149
-0.328281 7.010788 3.532390
3.026999 15.979608 -3.508911
-3.289186 8.234199 0.360797
-3.035797 8.027100 -0.786292
4.990496 12.308143 -2.003643
-3.459168 8.389715 0.294485
2.513950 16.322043 -2.355433
3.207735 8.164582 -0.658365
-4.428727 14.320857 0.319727
-3.520518 8.449514 0.639995
-3.273271 8.220357 1.927114
-3.504187 15.566605 4.086190
3.432019 8.363897 3.958990
1.767036 7.322652 2.867793
-4.834702 13.275011 -3.431750
-2.232840 7.526251 1.459769
-3.533531 15.537536 2.901291
4.794485 13.418772 1.235247
4.868715 10.861750 -3.406383
-3.481293 15.588955 -0.718497
2.112098 7.467998 -0.717274
-4.968594 12.559530 3.196919
-2.489074 7.663583 2.708170
-2.975284 16.018419 0.501384
-4.953180 12.682649 3.523755
4.323028 14.512256 -2.929242
-3.244384 15.804467 2.147362
4.767165 13.508024 -4.572521
3.506567 15.564265 -3.375041
-4.999766 11.951660 -2.401323
2.977349 16.016888 -2.114297
1.864234 16.639465 3.414192
-4.992447 11.725277 4.070843
-2.651884 7.761190 -2.494643
0.627247 16.960500 -4.761847
3.754128 15.302502 4.616927
-4.241306 9.352110 -2.954094
-0.384257 16.985213 -0.189562
4.699081 10.291598 0.000426
-4.897036 13.009472 -2.635805
-4.109208 14.848580 -0.251959
4.404509 14.366495 -1.072903
-4.733585 10.389667 -1.123760
-3.458301 8.388884 -0.305594
1.403907 7.201141 -1.235371
3.827299 15.217419 0.132362
-4.999847 12.039158 3.230032
-0.395046 16.984369 2.087322
-0.851616 16.926941 -1.684857
-4.999130 12.093276 -2.113134
-2.971685 16.021080 -0.993162
-3.173131 15.864096 0.966636
3.012858 8.009676 -4.977089
-1.599011 16.737422 -2.597129
0.635000 16.959514 2.651747
-3.103528 8.079781 -3.550348
-0.272839 16.992550 2.592584
-0.537516 7.028976 -2.791054
3.037616 15.971509 3.052033
-4.327306 14.504881 -1.370153
3.277917 8.224386 -3.733473
2.772914 7.839357 0.890549
0.175184 7.003070 -4.250086
-1.930362 16.612342 -4.457354
4.796637 10.588522 -1.036869
-3.053688 8.040835 -0.622728
4.844431 13.237534 3.759219
-4.144473 9.202976 1.556605
1.769661 7.323644 1.921391
-0.117863 16.998611 1.500144
-4.576990 14.012749 -4.960232
3.789456 15.261905 2.426826
1.384746 16.804423 -4.091013
3.738843 8.680203 2.120253
-3.840180 8.797966 -3.278528
-4.859607 13.176528 -1.712788
-3.093078 15.928469 2.603024
4.964069 12.598345 3.421296
3.515947 8.444987 -1.991113
-3.615650 15.453560 4.167703
-1.155157 7.135269 -0.755958
4.803720 10.612818 0.699800
3.158180 15.876326 -0.053330
-4.046346 14.937190 0.514809
-1.020905 7.105334 -4.687403
1.429476 7.208696 -3.473252
-3.252369 8.202356 0.989623
4.769849 10.500485 3.188033
4.767235 10.492195 3.540880
-4.948501 11.284225 -4.166877
0.118069 16.998606 -4.114835
-2.472675 16.345788 1.151565
2.859065 16.101920 -0.544258
-4.406999 9.638146 -0.240507
-4.138293 14.806160 -1.222235
-1.800967 16.664388 -3.153291
-4.887607 10.945819 -2.683255
4.786587 10.554808 -0.757370
-2.430162 7.630296 -1.074588
0.402617 16.983764 -4.963272
-1.992724 16.585744 -2.401098
-2.960999 7.971044 1.362180
-4.985163 12.384900 -1.551903
-4.087139 9.119844 0.184388
0.479511 16.976954 -1.307581
-3.597815 15.472136 -3.666058
-2.061760 7.444877 -4.369915
2.655069 7.763184 -2.094591
-0.738706 7.054870 -1.109835
-3.473098 8.403114 -0.401971
-4.283799 9.421421 -1.945705
4.779506 10.531559 -4.820121
-1.020056 16.894843 4.064934
-4.172185 14.755516 4.261390
-4.668151 13.791191 -0.012101
4.492612 9.805363 -1.805605
-3.900533 8.871767 -3.141226
-4.901899 11.014411 2.577154
-3.034148 8.025840 -0.112400
4.996441 12.188625 -1.567813
-2.870810 7.906292 1.926208
-4.629740 13.888256 2.677259
-1.143234 7.132453 -3.519155
4.860780 13.171675 4.668593
4.837486 10.735591 4.899312
4.655939 13.822700 0.959205
-2.237070 7.528365 2.560473
1.233764 16.845392 3.349581
-0.945275 7.090167 -4.058232
-3.281581 8.227571 -3.779164
-0.208568 7.004352 -4.210920
-4.959290 11.363256 -4.882202
-4.542268 9.910072 1.609983
2.918338 7.940036 -1.445766
1.114991 7.125906 -0.140097
3.256465 15.794132 -3.519852
-3.334843 8.274571 2.337414
4.328942 9.497949 0.274567
4.134747 9.188619 3.912432
-1.355435 16.812774 -3.296682
-4.472880 14.234580 -2.605990
-4.720856 10.352723 -1.711447
2.707037 16.203802 3.344374
2.536019 7.690869 1.914273
-4.827182 10.696808 -0.142009
1.294879 16.829419 4.328926
4.999995 11.993064 -0.958983
-3.457796 8.388401 -2.192262
-1.566945 16.748124 -3.993497
0.818240 16.932594 -1.283782
-0.928704 7.087006 -1.647207
0.223966 16.994981 -4.862481
-4.645256 10.150245 0.604878
-0.037477 7.000140 -3.883879
-4.786865 13.444272 1.403328
3.302760 15.753901 -0.529406
-4.008510 14.988620 1.206488
-2.928970 7.947700 -3.194914
0.512444 16.973671 4.441227
-4.183071 14.738963 -4.970850
2.989080 7.991833 4.010695
4.378628 9.585955 -4.552464
-3.051571 8.039203 -1.903791
-4.952114 11.309659 0.277605
-4.521305 14.134901 3.128676
-4.871729 13.125279 2.240722
-4.772026 10.507429 1.817593
4.999673 12.057196 2.293690
0.968289 7.094654 2.597705
-4.865973 10.850082 -2.671605
0.904900 16.917434 -4.883323
4.999904 12.030957 0.055897
4.740171 13.590842 -3.408148
1.382904 16.804953 4.186534
3.390756 8.325388 1.595330
1.840628 16.648880 -1.190549
3.499081 15.571615 -0.442192
-3.358613 15.704014 3.070337
-3.602343 15.467437 -1.516373
4.989475 12.324256 2.854582
-4.687188 13.740767 -1.877988
0.745038 7.055820 -0.426565
-3.168517 15.867880 3.285794
1.777523 16.673372 -0.098032
-1.488748 7.226780 0.213009
2.026689 7.429165 0.829369
1.787858 16.669429 4.172670
1.404906 7.201434 1.867992
-4.743440 13.581067 -4.069521
2.840571 16.114749 -0.377536
-0.487893 7.023861 2.301414
3.371738 8.307930 3.857320
-4.135689 9.190005 2.664896
4.911756 12.935229 3.233260
-1.149008 16.866187 2.732076
2.321804 7.571769 3.640252
4.988650 11.663295 -1.478833
-2.057372 7.442893 -4.361642
-0.103989 16.998919 2.428999
-4.686778 13.741871 -2.231197
2.522037 16.317329 -2.756939
-4.641934 10.141924 -0.111563
-2.084570 7.455270 1.952718
4.887998 13.052365 4.421254
-1.047453 16.889053 2.305704
-4.063852 9.087080 -0.145096
2.258909 16.460643 0.477513
-4.829411 10.705090 -0.950674
-0.966240 7.094250 -0.400012
-4.796452 13.412109 -3.854325
-2.342777 16.417170 -1.187449
-4.810396 13.363850 0.163890
-4.813416 13.353153 1.017212
-1.122407 16.872392 -4.262146
4.831272 10.712052 2.617647
-1.519254 16.763598 -0.215057
-4.568715 9.968536 -4.517665
3.033177 15.974901 -0.502653
3.843770 15.197723 -3.563260
4.284491 14.577429 3.436445
3.780071 8.727224 -4.946972
4.146521 9.206012 3.089884
0.260441 7.006788 -4.044508
2.397252 7.612155 1.847826
3.550037 8.479029 1.364746
-3.265794 15.786105 -2.780072
-4.188680 9.269622 1.609630
1.865663 7.361110 -4.930563
3.210009 15.833516 -1.396547
-4.674728 13.773954 1.262980
4.210005 14.697379 3.100489
0.997061 7.100421 -2.475421
-2.908135 16.067278 -2.416329
4.571496 14.025197 -1.438184
-1.833643 16.651640 4.495953
-0.297758 16.991126 -0.846090
-2.268503 7.544229 1.969770
-3.589859 15.480361 4.119995
1.771140 7.324204 2.186870
-3.235132 15.812338 -0.427677
0.409294 7.016780 0.552824
1.173854 7.139746 4.850049
-2.296768 7.558733 1.444181
3.097902 15.924666 -4.196270
2.323399 7.572606 3.592028
4.566720 14.035945 1.103969
4.050819 9.068982 -0.363913
-2.523017 16.316756 -3.913879
-1.539821 16.756990 -4.119375
-2.713018 16.199945 2.223542
1.659981 16.716403 -2.447387
3.520672 8.449666 -0.164645
4.539669 9.904431 4.145034
3.282356 15.771755 -4.649583
1.450223 16.785066 -1.156554
-2.977803 16.016552 -1.988988
2.248207 7.533954 -4.068868
4.962384 12.612161 -2.783122
-4.534907 14.105853 0.332743
-0.442284 7.019600 0.928640
-0.783860 16.938174 -1.134604
4.074823 14.897554 3.584109
4.912221 12.932785 -2.511494
-4.971773 12.530537 -0.125555
1.333838 16.818805 4.167220
2.852862 16.106236 -3.694989
3.632646 8.564322 3.486908
2.703927 7.794197 4.139605
2.383326 7.604575 -0.623057
-1.636841 7.275516 3.750909
4.340779 14.481459 1.936428
4.604741 13.948425 1.024390
-3.865365 8.828415 -1.399120
-4.957903 12.647452 3.257231
-1.786514 7.330057 0.635028
-0.707456 16.949698 0.230176
-4.400165 9.625436 -2.225599
-4.542916 14.088520 -2.620548
-0.745268 7.055854 3.796959
-4.336374 14.489148 -0.199766
2.818739 16.129735 2.475805
4.904314 11.026500 1.632656
-1.990630 16.586654 3.659125
4.759557 10.468131 -0.411658
2.578264 16.283988 0.083791
2.345170 7.584099 -0.319080
-3.986143 8.981612 -3.602453
3.143123 15.888544 -0.848531
-1.941391 7.392289 0.606075
-4.845994 13.231398 -0.322559
-4.294893 9.439943 0.907744
-4.958290 12.644482 2.466793
1.317674 16.823250 -0.637556
0.086114 16.999258 -4.457608
-0.927252 16.913268 -3.909378
-4.763259 10.479684 -1.120910
-3.835637 8.792526 -0.724584
-4.947325 11.276136 1.886482
-4.857401 10.814398 -3.046783
4.796018 13.413581 2.810774
-1.113876 7.125651 -1.983209
-1.404270 7.201248 4.213579
2.300748 7.560793 4.490801
3.736924 8.678043 -1.734950
1.953362 16.602649 1.805052
3.950958 15.064300 -4.486534
4.056555 9.076926 0.042383
-4.922420 12.877371 2.488514
-0.427209 16.981716 -4.169751
-3.847875 15.192782 -1.412472
4.658655 13.815746 -2.943668
-2.465426 16.349905 -2.399223
1.270136 7.164015 -0.388062
-3.940644 15.077551 1.885222
1.654339 7.281614 -0.610788
4.999417 12.076339 0.417528
-3.261099 8.209850 -0.629504
-4.961128 11.377737 4.515106
2.543571 7.695323 -1.297873
-0.134806 7.001818 -1.492791
-4.576496 9.986126 3.095016
4.990897 12.301575 -3.601746
-4.951511 12.694647 -3.024641
4.033554 14.954732 -4.527907
-4.503277 14.172669 -1.933578
-3.073655 15.943684 -1.741710
4.051349 9.069715 -1.096135
4.671040 10.216357 -0.498550
4.587743 13.988118 2.415841
-2.634982 7.750662 2.371624
-4.117351 9.163203 -1.973802
-4.994360 11.762578 3.517234
-4.895490 10.983052 0.202969
4.947063 11.274347 -1.964271
-3.311604 15.746102 0.552435
-3.297145 8.241166 3.755297
-0.268846 16.992767 2.430361
-2.477590 7.657011 -4.851387
-2.572135 7.712329 -0.236202
-2.511918 7.676776 -4.428411
-2.966162 7.974843 -4.819007
1.509517 7.233308 0.844570
4.452260 14.275387 -4.429100
-3.864241 15.172954 0.908764
4.938339 12.782819 -2.108512
1.632941 7.274166 -3.217817
4.952434 11.311958 -4.986708
0.767003 7.059180 -3.893451
-4.336853 14.488314 -3.545984
2.044048 7.436902 -4.374632
4.012571 9.016835 3.889433
-4.891683 13.035100 -2.148638
-2.783597 7.846497 -3.852274
-1.748724 7.315775 -0.598888
4.711188 13.674727 4.639082
-4.748552 10.434351 -2.369236
4.849354 13.218101 1.176070
-1.576679 7.255099 1.518248
3.720552 15.340283 -1.567153
2.032787 16.568126 -3.761550
3.511534 15.559372 -1.643016
-4.207672 9.298982 -2.761415
-4.931567 12.824410 -2.704787
4.435182 14.308497 -4.795177
-0.785176 16.937965 0.401910
-4.999882 12.034294 -3.717260
-4.523314 14.130642 0.638149
-1.236736 16.844635 -4.623666
-0.156329 16.997556 2.939426
4.919479 11.106284 3.065626
-4.964791 12.592330 -1.655548
2.557518 7.703595 -0.627070
-4.735353 13.605128 -0.282065
-0.304640 7.009289 2.371770
4.404108 14.367242 -4.359470
-4.997478 11.841218 -4.269724
-4.849074 13.219212 -1.017977
0.467267 16.978118 -3.238511
-4.487887 14.204285 1.061380
4.717897 10.344267 -1.625699
-1.767704 16.677096 2.669164
-4.531107 9.885982 -4.392691
-4.123721 14.827529 2.888565
-3.651009 8.583842 1.106537
3.834855 8.791591 -4.838261
0.312008 7.009744 -1.550036
4.105800 9.146510 -4.477404
2.333460 7.577900 -1.293428
-4.961402 11.379930 1.928179
-0.774772 7.060392 3.613292
4.934235 12.808285 4.737591
-2.348884 7.586074 -1.574269
-0.842213 7.071443 -4.468049
4.993484 12.255190 -3.967701
1.238496 7.155815 -2.762332
-1.796402 7.333852 -1.424199
-4.993195 11.739232 -4.929211
-1.850771 7.355149 -1.081505
0.956435 16.907671 0.613611
-4.801993 10.606851 -3.882746
0.779849 16.938809 3.344168
-2.601025 16.270207 0.108298
0.716979 16.948327 -0.174122
2.335194 16.421184 2.413270
1.967631 7.403433 0.410310
-3.369627 15.693997 -1.058632
-1.220623 7.151281 3.159761
4.816535 10.657988 0.339912
-1.488624 7.226741 2.789595
1.691792 7.294913 -1.638146
0.127661 16.998370 4.825234
4.211280 9.304610 3.270546
-4.957244 12.652483 -0.837509
3.782744 15.269687 -1.748341
4.369804 14.429982 -0.386061
-2.022193 16.572826 3.780270
-3.517723 15.553256 1.874877
-2.973495 7.980258 4.324946
4.061531 9.083844 -3.548384
3.402373 8.336141 -3.657551
3.360749 8.297924 2.692682
-4.814832 10.651894 1.318836
0.703720 16.950230 2.215125
-1.205635 7.147532 -2.993908
4.824739 10.687790 0.908033
-3.483782 15.586539 2.843582
-4.998958 11.897920 1.146026
0.012331 16.999985 1.387204
-0.519415 7.027052 1.444827
-3.106622 15.917767 -4.301009
-4.993374 11.742680 1.805650
3.777715 15.275495 -3.189626
1.571606 16.746584 2.206719
-3.130136 8.100994 0.202297
2.412515 16.379472 0.470738
-4.990827 12.302726 2.875448
3.692654 8.628901 -2.513261
-2.426186 7.628087 -0.111632
4.978796 12.459988 1.389158
-4.682055 13.754525 -2.499365
4.999515 12.069653 3.008081
3.828866 8.784446 2.216119
4.176994 9.251779 1.144505
-4.522252 9.867107 -0.927744
-4.873372 10.881856 -4.118732
3.947271 8.930953 -1.725033
4.923593 11.129235 -4.908580
4.900805 12.991016 -2.257952
2.699081 7.791086 3.349991
-3.802794 8.753655 4.446359
0.246730 16.993909 -4.244569
4.751337 13.557175 2.096734
4.518228 14.141404 -3.690869
-4.817757 13.337618 3.176474
4.713778 13.667423 -3.067302
-0.877776 7.077652 -4.882796
-2.996809 7.997609 1.237577
3.422138 15.645404 0.206251
-0.107173 16.998851 -2.541535
-4.710778 10.324121 -1.298486
4.961748 11.382700 -1.945650
-4.962757 12.609134 2.850395
4.965053 11.409878 -4.303957
1.131241 16.870348 1.089566
0.972074 7.095403 -1.565101
3.049686 15.962249 0.190944
4.992976 11.735068 3.554670
-0.635313 16.959473 -4.227584
2.709113 16.202464 -3.267185
4.904551 12.972309 -1.553163
-4.849706 10.783303 2.589175
2.754653 7.827245 -2.027963
3.369942 8.306290 0.899785
-3.153111 8.119550 -3.221684
-4.285916 14.575058 -4.143642
4.638388 13.866910 0.081788
-0.117099 16.998629 0.750370
-4.951302 12.696140 -4.186455
-4.987069 12.359368 -1.181501
3.385109 8.320185 0.695854
-1.894780 16.627073 2.347013
-4.951805 12.692550 -3.883462
-4.047915 14.935026 -2.970034
3.781978 8.729428 1.961026
-2.578277 7.716019 4.034393
-4.923546 11.128970 -0.997210
2.783634 16.153478 -3.022222
2.025354 16.571427 1.342236
-0.490689 7.024136 -2.366965
-4.084450 14.883967 -2.990523
-3.505811 15.565009 0.248821
-4.998909 11.895550 4.390568
-3.731418 8.671859 -3.390912
0.252185 16.993636 -2.909790
-4.541907 14.090713 3.507923
2.345402 7.584223 -0.207937
-4.085895 9.118080 -0.345266
-2.111205 7.467582 -3.183245
4.684461 10.251908 -4.250573
-0.451497 16.979573 1.327064
2.253023 16.463618 -4.604670
4.991492 11.708447 -0.434016
-1.787437 7.330410 -4.523096
3.202981 8.160611 0.193467
-2.210201 16.484976 -4.015066
3.088354 8.067816 -0.722480
4.886962 10.942834 2.018500
-4.166286 14.764427 -1.069940
1.475663 7.222718 -1.972120
-3.723476 8.662976 0.101603
1.121332 16.872639 -1.544028
2.401026 7.614219 -2.570706
-3.027704 8.020929 1.764445
3.431911 8.363795 -3.171698
0.727180 7.053162 -2.733086
4.614992 10.075980 3.938421
1.540334 7.243176 4.772161
4.998942 12.102863 3.954302
-0.432889 16.981225 -1.934597
3.715162 15.346277 0.903866
-3.811901 8.764353 3.551489
4.229544 9.333362 4.778363
-4.704597 13.693152 3.702152
3.886572 8.854438 -2.764868
-3.098603 8.075887 4.598324
-3.872528 8.837165 -0.177137
-3.736094 15.322890 -1.772007
4.360105 14.447343 -4.780267
-4.673751 10.223473 2.312540
2.435187 16.366905 2.452116
-3.783747 8.731475 4.789507
-4.943493 11.250413 4.419396
4.586826 10.009767 2.252383
-0.901894 7.082014 0.267359
-4.678027 13.765239 -4.011147
2.071632 16.550642 1.186687
2.770510 16.162244 -4.969816
4.989732 12.320274 4.824535
4.809098 10.631580 4.996939
-4.562522 14.045335 3.642181
4.981181 12.433397 -3.903478
4.946183 11.268376 -4.126557
-2.161407 16.508694 -1.533538
-2.179775 16.499842 -1.346249
2.751177 7.824952 1.534217
0.411725 16.983019 -2.358100
-2.215158 16.482530 -2.557293
4.789784 13.434563 -3.932856
-2.089968 16.542250 2.963504
4.997679 11.847682 2.278337
4.870534 13.130442 -0.441698
3.479560 8.409365 -2.548702
-3.215190 15.829172 3.200281
4.527276 14.122210 -2.766831
-2.853785 16.105595 -3.147370
4.053914 14.926736 1.469276
-0.471635 7.022294 3.219920
3.752434 8.695573 -3.923953
-4.462653 9.745065 -0.429468
1.889863 7.370916 -0.720883
4.110212 9.152869 -2.950072
4.322356 9.486589 4.948875
3.270932 15.781667 3.827436
-4.302386 9.452555 -2.423259
-3.123798 15.904086 4.496538
-1.894616 16.627140 4.644909
4.402752 14.369762 -2.972976
-4.831724 10.713750 2.492572
-3.088882 15.931769 4.677436
4.994650 12.231235 2.612830
4.253974 14.627490 -3.989833
-4.286814 14.573563 4.567455
2.418732 7.623959 4.184411
-4.963920 12.599582 4.300650
-3.323955 8.264853 -3.823056
1.428169 7.208306 1.546425
-4.661928 13.807327 2.596291
-1.732304 16.690322 -0.592595
-4.470417 9.760497 2.049973
-0.199557 16.996016 4.903338
-4.974522 11.495891 -3.662507
1.180854 7.141442 0.934366
-4.990687 11.694974 0.004002
-2.747087 16.177740 -3.931940
3.082158 8.062958 1.575113
4.408707 9.641335 -0.051323
2.893193 7.922079 3.595052
-2.516961 7.679710 -2.443511
-4.999259 11.913911 -0.826850
-0.908542 7.083238 -3.191170
-4.527681 14.121345 1.082669
2.619323 16.259008 4.756500
-2.103161 16.536156 -3.516694
2.465247 16.350007 0.917482
-3.637532 15.430504 -1.448403
3.195272 15.845807 -2.859689
-1.531876 16.759554 -2.407357
-2.461347 16.352215 0.436260
4.490831 14.198281 1.408592
-0.382314 7.014638 0.222942
0.358657 7.012880 -1.105515
4.917710 11.096602 -4.157359
-3.067944 8.051872 -3.343836
-2.610331 7.735475 0.675426
4.281157 9.417038 1.525136
-3.076235 15.941672 -2.854195
1.052371 16.887997 -2.880616
-3.067195 15.948711 -1.668523
-3.209153 15.834232 2.995113
2.215484 7.517631 -4.153816
4.673663 13.776760 2.018714
-4.938993 11.221315 1.154804
2.846928 16.110353 3.628846
-4.979575 11.548522 -3.495478
2.321736 16.428266 -0.448685
4.994175 11.758716 -1.729449
-4.884827 13.066987 3.144027
-2.100828 16.537237 0.903133
-4.310605 9.466488 1.739891
-4.913598 11.074497 1.280123
4.825920 13.307858 2.446899
1.297298 7.171230 1.300191
1.438541 7.211410 2.301271
-4.121848 9.169741 -1.872894
3.899359 15.129696 -2.375926
4.905963 11.034845 3.888387
4.883212 13.074355 -3.467338
-2.479637 7.658180 3.796562
4.992650 11.728983 4.197091
4.713875 13.667149 1.118185
-4.807827 13.372881 -0.914282
1.810615 7.339349 0.261509
-3.118903 15.907997 -2.850740
-2.925169 7.944955 2.624812
4.054414 9.073957 2.462346
4.143565 9.201631 0.267276
-4.279651 9.414543 -4.235476
-3.692286 15.371502 0.143336
-4.949432 11.290687 -2.958104
2.297705 16.440783 0.843394
0.058998 16.999652 -4.708996
0.981757 7.097332 0.614682
-4.130554 9.182462 4.274090
1.527507 7.239042 -4.297398
-3.805884 15.242722 0.093571
-4.085562 9.117608 -4.011110
4.911452 11.063177 1.699870
-2.127781 16.524660 -1.955147
4.486469 9.792831 0.456182
-1.494687 7.228636 -0.872532
-1.515478 7.235199 -2.866555
-2.580938 16.282378 0.304056
-3.984418 15.020664 2.670418
1.179338 16.858926 -0.055945
-1.118017 16.873401 -2.172873
-4.769268 13.501360 3.533057
4.282805 14.580230 3.441469
4.681723 13.755412 -0.398962
-4.627576 13.893553 3.024143
-3.506157 15.564669 1.477805
1.568923 7.252529 -2.693616
-4.988716 12.335729 -3.832472
-4.437348 9.695669 1.473613
-2.637387 7.752155 -0.284120
3.944152 8.926946 -3.524802
4.056375 9.076677 -2.181697
1.466409 7.219870 4.617968
-4.989932 11.682852 -2.007556
-1.136157 16.869204 3.169763
-3.684746 15.379740 2.513333
-4.412481 9.648402 -1.206936
1.856121 7.357284 2.570427
4.709454 10.320405 -0.616176
-1.655361 16.718027 -3.498580
-4.985696 11.622059 2.074560
-1.830193 7.347002 2.720261
2.354995 16.410669 1.397458
2.408343 7.618233 -3.943365
0.875075 7.077171 4.326344
-2.170509 7.495681 3.814563
-4.780510 13.465169 4.251971
1.517267 16.764231 -4.917825
4.484219 14.211738 2.769527
4.927167 11.149690 -0.398267
-3.253809 8.203590 -1.693534
-4.292499 9.435931 4.179844
-4.984536 12.392937 4.815832
1.586864 16.741504 2.365030
4.936188 12.796272 -0.586538
4.995661 12.208246 -3.305998
3.720540 15.340296 4.768732
-1.221520 16.848494 3.934293
-1.032147 7.107692 2.243393
1.098047 7.122061 2.500662
3.832396 8.788655 0.751836
4.876527 10.895697 -2.996760
-1.136451 16.869135 -4.387979
-3.993278 8.991059 -0.587960
-4.750722 13.559052 -3.951448
-4.999982 11.986628 1.819386
-0.970469 7.095085 0.854455
-2.863042 7.900855 -3.549209
-4.453200 14.273546 -1.698313
2.414993 7.621894 -1.805054
-3.819716 15.226418 -0.199901
-2.747758 7.822701 2.650414
-3.356436 8.294013 3.357601
4.651337 10.165590 4.025173
-4.759232 10.467124 -4.239939
-1.034117 7.108109 1.569372
4.869350 13.135532 -3.914002
-2.815444 16.131982 0.448790
-3.424343 8.356667 -3.536031
-2.362796 7.593506 -4.848577
3.004394 8.003299 -2.378514
0.042094 16.999823 -4.180816
4.935011 12.803532 4.145403
3.215395 8.171001 1.378832
-4.852924 13.203796 -1.642706
3.044686 8.033908 -0.038358
4.515710 14.146709 4.593976
-3.942102 8.924316 -1.509389
4.848610 13.221058 2.492572
-1.308374 16.825781 -1.554021
-4.732196 10.385589 -1.224044
-3.074555 8.057017 -1.575667
1.253790 7.159751 -1.897525
-4.186016 14.734459 -2.411363
-1.367287 7.190579 -3.545201
-2.576634 16.284969 0.835818
-3.636298 8.568188 -4.195444
-3.960199 15.052347 -4.196027
-3.916924 15.107685 4.376547
0.854708 16.926406 4.433876
4.869600 13.134460 -1.267213
-4.704951 10.307830 0.079742
4.422559 14.332589 0.221496
4.032572 9.043928 2.695137
3.160636 8.125677 0.152262
3.841834 8.799951 1.305446
-4.027528 14.962940 1.327696
2.044469 16.562910 3.755849
-1.901037 7.375494 -3.683281
-1.239983 7.156196 4.949071
-1.179042 16.858998 3.614898
-2.202884 16.488575 -1.213376
-4.976674 12.482406 -1.512580
0.873872 16.923043 1.997453
3.560582 15.510308 -0.206599
1.872547 16.636115 -2.684503
0.911460 16.916222 -0.394464
-4.780206 10.533840 2.758663
3.512762 8.441840 -3.917710
-3.555716 8.484764 -1.047990
1.311371 16.824967 -1.304272
-1.877007 7.365688 -3.972723
4.999178 12.090665 2.734220
-2.879373 7.912310 2.453416
1.221472 16.848506 1.734606
-4.993505 12.254767 -3.936458
1.676601 16.710521 0.949278
-4.884562 10.931799 -3.498325
-4.915010 12.917976 -1.333716
-1.425668 16.792439 1.443626
4.219592 9.317643 -0.921430
-2.361931 7.593041 3.667604
3.675707 15.389569 -0.052332
4.943286 12.750951 2.271809
3.182941 8.143980 -1.515598
-3.827050 8.782286 4.162165
-4.298057 9.445258 -4.593988
4.897008 10.990389 -1.752152
-4.854056 13.199225 3.790000
4.631993 13.882723 2.858474
-1.353635 16.813281 -0.767670
-2.484619 16.338971 1.426588
4.287724 9.427953 -4.236205
-1.333214 16.818977 4.931375
-4.955090 11.331355 2.229075
-2.285981 7.553171 -1.344864
3.780291 8.727478 -1.865087
-1.363876 7.189611 4.440516
-1.128898 7.129108 1.907847
1.483049 7.225006 2.905582
2.624681 16.255708 0.897010
-3.998499 15.002000 -0.045298
-4.050283 9.068241 -1.064941
-4.660026 13.812226 -4.230387
0.338090 7.011444 -1.792277
4.508065 14.162718 -0.084391
-4.377008 14.416981 -3.015433
-4.028937 14.961025 -2.857599
-4.180838 14.742370 -4.863885
3.388926 15.676300 3.508625
-1.562686 7.250472 2.128539
0.195707 16.996168 -4.856725
0.939403 7.089041 3.767167
4.931008 12.827745 3.923547
4.978959 11.541777 1.483871
3.084262 8.064605 -2.708304
-4.876601 10.896024 -4.595125
-4.933798 11.189051 2.114147
0.147711 7.002182 4.933289
-1.938306 16.609010 2.591609
0.072073 16.999481 0.294567
3.319487 8.260882 -1.231507
4.861056 10.829472 0.486549
-4.592771 10.023526 -2.193662
-4.996921 12.175441 -4.213704
4.125728 9.175399 3.002928
2.219646 7.519691 -4.118509
4.906453 11.037336 -0.753908
3.617497 15.451625 -0.263703
-3.894432 15.135825 -4.645828
-1.070774 16.883999 4.621430
4.468651 9.756976 2.105137
1.584084 16.742434 2.203351
3.222517 15.823007 3.150752
-4.622980 10.095254 1.138772
4.838942 10.741175 0.130237
-1.802079 16.663959 1.198407
0.305526 7.009343 -2.210530
0.953117 16.908316 0.990627
4.009337 14.987510 -3.806049
-4.894220 10.976961 -3.041062
-0.884581 16.921130 -3.555501
4.974520 11.495863 -1.623694
4.963722 12.601220 1.087370
4.182714 14.739508 0.191076
4.545741 14.082364 0.552743
3.767630 8.712909 -1.258210
0.429010 16.981561 2.683172
0.291962 7.008531 2.159284
3.822075 15.223623 -0.779160
4.108015 14.850301 -2.220173
0.252433 16.993624 -2.518324
-3.137381 8.106822 0.812274
4.303367 9.454212 -0.865145
3.902140 8.873772 -2.156896
-4.926755 12.852691 -1.201641
-1.206849 7.147834 -1.753710
-1.638805 16.723803 -4.294414
4.260300 9.382780 3.505984
3.508644 8.437779 -4.194455
2.446038 16.360837 3.777461
4.134655 9.188483 -0.935436
1.557384 16.751269 -4.931693
-4.906167 12.964119 2.913756
-4.940372 11.230115 2.084128
-3.359575 8.296859 -3.175580
-4.321895 14.514204 -3.976351
2.667348 16.229096 0.564983
2.380709 16.396842 4.171860
-4.627714 10.106785 1.154486
-3.254202 15.796073 3.535599
-0.444214 7.019772 -1.300516
0.828411 16.930896 -2.345558
-1.122477 16.872376 4.062417
1.028288 7.106880 4.276698
3.861907 8.824205 -4.361541
3.566405 15.504391 3.724634
-0.825681 7.068646 0.393429
1.049886 7.111469 -3.824816
-1.406011 16.798243 1.685284
-2.064427 16.553915 -1.385162
-3.852243 15.187510 1.235810
-4.875548 13.108616 -3.556341
0.713096 7.051112 -4.519170
-3.959759 15.052918 -0.588736
4.847438 13.225702 0.870130
-3.040813 8.030937 4.437331
-2.682904 7.780755 4.852329
4.119086 9.165722 3.900134
4.542011 14.090486 4.180932
1.270899 7.164215 -2.218244
4.857098 13.186846 -1.160361
-3.575875 8.505273 -2.640788
-3.716981 8.655743 4.158334
4.548525 14.076276 -3.131489
3.959207 15.053633 4.792446
-4.089971 14.876132 1.406115
-3.153523 8.119885 -3.757219
-2.925645 16.054701 -2.110865
-1.719957 7.305136 -0.312998
-4.476774 9.773232 -4.644175
4.957643 12.649441 2.632061
-2.986833 16.009842 4.159196
1.895322 16.626852 -4.852599
-3.866876 8.830257 4.775285
-1.086170 16.880598 -3.978895
4.915106 11.082540 -3.242006
4.348823 14.467334 4.118290
4.984304 12.395876 3.150232
1.558669 7.249153 4.978282
4.770110 13.498684 -0.960832
-1.506155 7.232244 -2.041885
-4.752301 13.554232 1.966286
4.998700 12.113998 -3.398124
1.778701 16.672924 1.923884
-4.954002 12.676658 -0.150589
-3.955855 8.942025 2.472097
-3.550379 15.520627 0.050721
-2.625064 16.255471 2.527044
-2.613339 7.737318 -1.462476
-2.068708 16.551972 -3.185199
-4.986102 11.627463 -4.961466
-2.783619 16.153488 2.103663
