3.893953 -3.136420 2.821641
0.539743 4.970782 -3.575485
-2.169610 -4.504752 2.994690
3.512875 -3.558048 2.760342
-4.970902 -0.538644 -0.049106
2.845047 -4.111655 2.909016
3.889433 -3.142024 4.428548
-4.266523 2.607064 -1.295122
0.950729 -4.908779 0.480686
-3.039688 -3.969924 -4.975875
-2.974966 -4.018653 -4.353334
3.583977 -3.486418 -0.803109
2.855607 -4.104328 -4.793667
4.489283 2.201439 1.091092
2.493870 4.333660 -1.583402
4.249089 2.635383 -3.214127
-2.748772 -4.176632 -0.333594
-1.113096 -4.874527 -0.280227
2.638946 -4.246877 -0.583085
-4.492498 -2.194872 0.626317
-3.792277 3.258625 2.777978
-2.868191 4.095544 -2.454487
3.736757 -3.322145 -0.693965
3.267464 -3.784664 2.580204
3.147401 3.885083 3.749826
4.895652 1.016167 4.922207
4.707525 1.684995 2.785653
2.791758 4.148022 2.417924
4.778988 1.470126 -4.233294
-4.699183 1.708122 0.878913
-4.652233 1.832137 -4.501338
0.952177 -4.908499 0.391805
0.387373 -4.984972 4.569628
4.442945 2.293521 4.689145
-2.691808 4.213569 0.806062
4.980965 -0.435876 -0.512775
-4.657557 1.818561 -4.604025
4.997349 0.162795 -1.808141
3.329481 3.730222 0.668364
-4.913954 0.923613 -2.350957
2.719258 4.195907 -4.600039
-4.241614 -2.647396 -4.038814
-4.942043 -0.759088 -4.274725
4.119527 2.833637 1.245516
-1.631198 4.726436 -0.593835
-4.971731 -0.530930 1.159412
-3.713859 3.347723 -2.403740
0.127226 -4.998381 -0.957216
3.352199 -3.709820 0.370835
-2.088234 4.543047 1.526108
4.757430 -1.538459 0.470297
4.986844 -0.362472 -4.572472
-4.999865 0.036799 -1.470165
-3.030743 3.976757 3.664891
-2.680552 4.220740 0.848074
4.454702 2.270601 1.695080
1.701518 4.701578 -1.659495
3.725837 -3.334388 -3.181024
3.129301 -3.899676 -4.824873
4.991988 0.282948 1.460127
-4.879682 -1.090277 4.103653
4.393950 -2.386044 -0.698366
1.025635 4.893677 -0.563492
0.783308 4.938262 0.170778
4.977841 -0.470212 -3.267921
-2.586450 4.279051 -1.964704
-1.181160 4.858483 4.160052
-3.919330 -3.104651 1.238073
-2.151207 4.513569 -1.092469
4.367322 2.434440 2.088522
4.878629 1.094978 -2.533465
3.553089 -3.517892 0.478355
4.522177 2.133052 1.949193
1.063891 4.885503 0.511180
4.907351 -0.958073 0.927652
4.767084 1.508281 -0.018778
-2.627468 4.253988 -0.993306
3.515078 3.555872 2.953948
4.580907 2.003819 0.320218
-3.032433 3.975469 0.415349
-0.007379 4.999995 -1.918347
1.591497 -4.739951 4.216432
-4.961173 -0.621899 -1.767966
-1.003956 -4.898170 -4.197686
-1.822738 4.655924 -3.120223
3.489562 -3.580916 3.499475
-4.781205 -1.462900 0.538015
3.497306 -3.573352 -0.600455
-4.970443 0.542861 -2.999103
4.393733 2.386443 3.846130
3.296741 3.759188 4.377861
-4.975192 -0.497462 -1.486216
-1.690411 -4.705583 2.890284
-0.568087 -4.967623 -0.152596
-0.011346 -4.999987 -0.430014
-3.077348 -3.940804 -3.775295
-3.847320 3.193451 3.278847
-4.999572 -0.065424 1.353239
-1.944227 4.606515 0.406067
-3.519557 3.551438 -2.272126
-0.124459 4.998451 -0.858417
4.582602 -1.999939 -3.040883
4.965351 0.587611 -0.421788
-3.300139 3.756206 -4.794976
4.467837 2.244644 2.248685
-2.914468 -4.062743 1.186641
2.759814 4.169344 4.109670
-4.779265 -1.469226 -3.044793
-0.700562 -4.950678 -3.792135
4.870549 1.130377 -4.967532
-4.095404 -2.868390 0.428741
-3.132927 -3.896764 2.938819
-4.458137 -2.263849 -0.132446
-4.923270 -0.872591 -0.436547
-4.024343 -2.967266 0.454260
-1.814699 4.659063 -4.467166
3.608904 3.460609 -0.659664
2.228148 4.476087 4.040328
2.948562 -4.038067 -4.621602
4.232034 2.662684 -2.827768
-4.875849 1.107291 -0.900346
1.054378 -4.887565 1.486279
0.490633 -4.975870 1.601886
-3.699131 -3.363990 1.757560
-4.695561 -1.718053 -0.087825
0.570732 -4.967320 4.541236
-3.695450 -3.368034 3.852684
3.924708 -3.097848 -2.612417
-1.811584 4.660275 -4.709696
-4.743602 -1.580583 -4.979170
4.744810 -1.576954 1.168877
-3.567976 -3.502792 2.349503
0.745472 4.944115 -2.363821
2.345132 -4.415921 4.381198
-4.133151 -2.813727 3.006817
4.960281 -0.628977 3.828439
3.101102 -3.922138 -3.043117
-1.472767 -4.778175 -4.531510
-0.117545 4.998618 2.755677
4.213190 -2.692403 -3.608874
-3.271136 -3.781490 -3.201718
-4.907107 -0.959325 3.091374
-4.700161 -1.705430 -1.692591
4.083681 2.885056 2.174157
-2.878060 4.088615 1.062511
-0.634162 -4.959621 -2.299257
4.891962 -1.033784 -2.025139
4.561776 2.046997 -0.497358
0.132029 4.998257 3.552630
3.692037 3.371774 -0.596417
1.618852 4.730678 -4.171712
-4.862432 1.164797 4.045182
-1.404565 4.798666 -1.428129
4.259840 2.617969 -1.258203
-1.661804 -4.715762 -0.022581
-4.999334 -0.081623 -0.500682
-1.044822 4.889616 -1.255492
3.027269 3.979402 -4.448348
0.949041 -4.909106 -0.287447
-0.362421 -4.986848 -4.111835
1.748827 4.684187 0.515704
2.055244 -4.558067 0.064745
4.454263 -2.271463 1.908176
-0.340702 -4.988379 1.116550
4.218355 2.684303 1.199143
4.678374 1.764318 -3.511915
4.909154 -0.948791 0.225057
-0.544458 -4.970268 -3.561020
-0.076636 4.999413 -4.784912
-4.858203 -1.182315 -2.966436
0.315116 -4.990060 0.829581
-3.838780 -3.203711 -0.833147
0.484758 -4.976445 0.928041
3.618294 3.450790 3.622744
4.661791 -1.807679 2.720162
1.428241 4.791673 0.641078
1.041578 -4.890308 1.809287
-4.030214 2.959286 2.195140
4.704234 -1.694160 -3.735745
-3.306021 -3.751030 -2.043275
4.945827 -0.734024 -3.730978
3.721594 -3.339122 -4.640479
-0.594042 -4.964586 0.709879
4.999219 0.088353 1.741616
-2.564002 -4.292539 1.961329
4.058784 -2.919978 -4.022260
3.472179 -3.597773 -4.155104
-1.699974 -4.702137 -1.906189
-4.316371 -2.523676 1.649516
-3.371992 -3.691839 1.217236
-4.460402 2.259384 4.071610
2.412589 4.379431 -3.314533
1.056183 4.887175 -3.376604
-0.677692 -4.953861 -1.167734
0.008173 -4.999993 -1.755941
1.229246 -4.846540 2.172682
0.561100 -4.968417 -4.483278
4.731124 1.617550 0.277676
0.588185 -4.965283 0.098484
3.128211 -3.900551 3.278401
-0.427109 4.981724 -0.694228
-2.893822 -4.077474 -4.661288
0.977046 -4.903609 1.189962
-1.449321 4.785339 0.943656
4.993330 0.258168 -0.067803
1.523806 -4.762144 -0.597471
3.457979 3.611424 -4.298600
-4.253990 2.627465 4.865271
4.967092 -0.572712 -3.054773
-4.546724 2.080216 4.061175
4.926694 0.853043 -2.368327
4.602624 -1.953420 -1.085528
2.593942 -4.274514 -0.545126
-3.999436 3.000752 0.510079
4.267431 -2.605578 -4.967642
-4.182945 -2.739156 0.350072
4.922747 0.875535 -2.694912
2.578736 4.283704 -3.880539
1.128661 4.870947 2.714368
-1.342207 -4.816480 -1.633060
4.466367 -2.247568 3.517774
-4.702747 1.698284 0.021856
-4.982767 0.414772 -4.087074
-3.075471 3.942268 0.601357
1.160513 4.863457 -2.857353
4.737012 -1.600223 -2.123404
4.996737 0.180619 -2.657930
0.589179 4.965165 0.138306
-4.137703 2.807030 -1.548667
3.804847 -3.243939 -0.532684
4.637673 1.868687 4.507868
4.603897 -1.950419 -4.103257
0.841860 -4.928618 1.460086
4.841336 -1.249586 -1.574760
-4.660519 1.810956 2.693976
3.262812 -3.788675 -0.462649
1.309952 4.825352 1.387177
-4.973971 0.509522 4.009525
3.979135 -3.027620 0.296372
4.199785 -2.713264 -2.210551
0.594741 4.964502 -1.529908
0.168501 4.997160 -3.885925
-4.999635 -0.060411 -3.806931
-2.214939 4.482638 -2.139928
-1.375742 -4.807009 3.242279
-3.068928 -3.947364 -1.503378
4.279756 2.585284 -1.411929
1.626092 4.728195 -0.453651
-4.825958 -1.307717 3.627851
-1.986935 4.588256 4.124853
1.163492 4.862745 4.366991
-0.025566 -4.999935 3.431052
2.804712 -4.139274 -0.980465
2.172987 -4.503124 -1.172358
-4.070504 -2.903619 0.103695
-0.762616 -4.941500 0.995134
-3.287751 3.767054 1.703158
-3.898488 3.130781 -0.992204
-1.478268 4.776476 -1.769368
-1.097812 4.877992 3.034343
2.559691 4.295111 0.645319
4.821554 1.323864 -4.317607
0.427793 -4.981666 -0.211457
-4.293797 -2.561895 2.245052
-2.887373 -4.082043 -0.398934
0.646248 -4.958060 0.012741
1.781345 -4.671917 -0.076375
-1.291585 4.830301 3.520173
-2.820052 -4.128838 -3.459976
-4.718438 1.654189 2.947096
1.880016 -4.633092 -2.556460
3.966564 -3.044071 2.594650
4.996121 0.196908 -2.838499
-0.187714 -4.996475 -4.507559
-1.690840 4.705429 1.538214
2.129096 -4.524041 -2.653094
-4.638849 -1.865766 -1.177701
-0.816732 4.932844 -3.802491
-1.248595 -4.841592 -2.039975
-1.697537 -4.703017 -2.621143
1.757020 -4.681119 -4.797185
4.995947 -0.201288 -3.747109
4.415021 2.346825 -2.942858
3.460708 3.608809 -2.175621
3.248610 -3.800860 -1.764087
1.751293 -4.683265 2.528082
4.999647 -0.059411 -4.235424
-0.488953 -4.976035 1.158871
-2.979588 -4.015228 3.516964
-1.713181 4.697341 4.821822
1.478618 4.776368 1.579406
3.130010 3.899108 -2.943081
-2.094092 4.540350 -0.517193
3.494744 -3.575859 -1.980314
4.215100 -2.689411 -0.141584
4.483132 -2.213939 -0.576475
-4.942938 -0.753236 -2.243432
4.721623 -1.645075 -3.430414
2.945463 -4.040328 4.336484
4.954684 -0.671645 -2.872376
-4.947136 0.725154 2.846731
1.149681 4.866029 -1.553953
-4.034168 -2.953894 -1.757113
-4.478354 2.223589 -1.194015
-4.910862 0.939913 1.898957
0.592879 -4.964725 -1.376748
4.801294 1.395557 -4.249939
1.191766 -4.855893 -1.605154
-1.575791 4.745196 -1.386038
-3.747524 -3.309994 -3.612642
4.385552 -2.401444 2.420205
1.019998 -4.894855 -3.259435
2.145128 -4.516462 -1.685581
4.984427 -0.394319 -0.134991
-4.831074 1.288691 -4.283390
0.480162 -4.976891 3.835186
-4.115241 2.839858 2.045833
3.916364 -3.108391 -0.234873
-2.554740 4.298058 -1.991831
-0.156832 -4.997540 0.009907
-0.804925 4.934784 4.471917
-3.743014 3.315094 -0.901982
-4.851236 1.210582 1.155340
4.998917 0.104049 1.199050
0.525310 4.972328 1.690586
-4.435267 2.308335 3.353841
1.962612 4.598712 0.290712
4.746315 1.572416 -3.559480
4.174840 2.751492 2.832295
-2.170170 -4.504482 -1.448552
-1.575702 4.745225 1.607973
-0.028936 -4.999916 -1.331626
-4.195745 2.719507 -0.994643
4.722173 -1.643496 1.145991
-1.089863 -4.879775 0.389640
3.824550 -3.220686 1.194793
-2.372271 4.401401 -1.716378
-0.272276 4.992581 4.058046
-3.834037 -3.209387 0.351607
2.167549 4.505744 0.749230
3.957819 3.055432 4.174521
-4.392399 -2.388898 3.247383
-4.507752 -2.163371 3.562897
4.450623 -2.278586 -1.917345
-3.446613 -3.622273 1.025342
2.726243 -4.191372 -3.200919
-4.354726 -2.456900 1.236300
2.287056 4.446277 -4.857370
-0.759533 4.941974 -0.315548
3.251308 3.798552 -4.114759
-4.565130 2.039508 4.031466
4.235040 -2.657900 0.468137
-0.781885 4.938487 -1.518365
-4.967477 -0.569366 1.343970
-4.950966 0.698524 3.983620
-4.874461 -1.113385 -2.890882
1.129561 -4.870738 -3.819833
-1.603483 -4.735910 4.453206
-3.132133 3.897402 4.606705
4.919433 -0.893968 0.670702
3.110657 -3.914564 1.491825
1.184069 4.857775 -2.297908
2.583503 4.280831 4.416668
3.262912 -3.788588 1.239396
3.398565 3.667391 1.773441
3.522782 -3.548240 2.696466
-2.772317 -4.161041 -1.467375
-4.342844 2.477843 3.532718
-3.097217 -3.925207 3.994137
-3.855979 3.182990 4.452067
4.897701 -1.006245 2.490480
-3.399671 -3.666366 0.913097
3.682891 -3.381762 -4.056908
1.445822 -4.786397 -3.767500
1.707142 4.699539 1.361755
1.725930 -4.692672 4.191100
1.601453 -4.736597 -4.529911
-2.083323 4.545302 -3.106487
-3.976326 -3.031308 0.213265
-4.519539 2.138636 -4.425744
1.978603 -4.591855 0.907311
-4.940888 0.766567 0.815219
-4.144468 2.797031 2.538270
-4.671839 -1.781551 -4.641620
1.360215 4.811426 4.405249
4.189508 -2.729106 -2.880336
4.213691 -2.691619 4.296846
-4.930027 0.833570 0.181216
3.884296 3.148371 3.665696
-1.053809 -4.887687 -4.207318
4.158575 2.776014 -3.109055
-1.609597 4.733835 0.457728
-2.441981 -4.363110 0.499559
-4.924575 -0.865194 -2.175344
-3.598853 -3.471060 -3.811330
-3.196156 3.845073 4.884942
-1.760937 4.679648 4.297112
3.581371 -3.489094 -2.089924
4.848986 -1.219562 3.784140
0.412511 -4.982954 4.952630
4.963274 0.604909 4.825298
3.800939 3.248517 3.935559
3.177278 3.860687 1.529597
-3.123427 -3.904383 4.718245
1.777598 4.673344 -3.123288
4.795324 1.415935 0.210847
1.381362 -4.805397 2.844365
-4.741658 -1.586406 -3.491330
2.117893 -4.529297 -0.091329
-4.992987 0.264729 4.444317
2.585713 4.279496 -4.918442
0.135511 -4.998163 -4.448983
4.122106 -2.829884 -3.740246
3.616572 3.452595 -2.606541
3.405944 3.660539 3.395991
4.999866 -0.036668 1.890492
3.884034 -3.148695 -4.916985
-0.788774 4.937392 -0.725383
4.443071 -2.293277 -0.129043
-0.660553 -4.956175 -3.627334
3.550403 -3.520602 0.880882
-2.455354 -4.355598 4.592002
-4.870940 1.128692 4.781614
-3.382910 -3.681836 3.968101
3.339385 -3.721358 3.998676
4.977882 0.469774 -3.437497
-4.313437 2.528688 -1.434542
4.858203 1.182314 0.590796
1.773190 -4.675018 -2.693513
-3.263297 3.788257 -2.886611
4.828720 -1.297482 -2.893170
-4.716760 -1.658969 -0.157042
4.654879 1.825406 -0.529771
0.568477 -4.967578 4.239718
-4.332702 -2.495535 -1.496213
-3.351216 3.710707 2.501795
-2.888231 4.081437 -4.069999
2.738585 -4.183318 -0.674031
2.726627 4.191122 -3.088159
4.875559 1.108569 0.206815
-4.676478 1.769336 0.579864
-4.898893 -1.000422 1.442954
-3.646625 -3.420837 -0.579050
-4.075255 -2.896946 1.958623
-0.045107 4.999797 3.873121
0.596926 -4.964240 1.887653
4.690094 1.732923 4.675976
-3.116863 -3.909625 -2.422597
-3.747290 -3.310260 -0.171965
4.191349 -2.726278 -2.226267
1.623665 4.729029 0.119326
0.946174 -4.909659 1.806297
-1.192068 -4.855819 -4.922225
-0.813239 4.933421 1.662342
4.929564 -0.836299 -4.440632
4.994827 0.227380 -1.689391
-4.930672 -0.829744 3.626626
-4.990555 -0.307177 -0.335828
2.817454 -4.130612 2.118454
-4.954641 0.671960 -2.574854
-3.159948 -3.874884 -1.948938
0.804531 4.934848 -1.780518
4.662121 -1.806827 -3.422645
3.214091 3.830094 1.652022
-2.667888 -4.228755 -3.264226
-4.950434 -0.702284 -2.928720
-2.126307 -4.525353 0.273889
-4.205757 -2.703998 -4.465883
-3.738325 -3.320381 0.430180
3.902385 -3.125922 0.848700
3.797054 3.253057 -0.574389
-4.678497 -1.763991 -2.060512
4.967711 0.567313 3.221914
-0.996228 -4.899748 2.163005
4.059034 -2.919630 3.256577
-4.581022 -2.003557 2.414939
-3.519941 3.551058 -1.990826
-2.888115 4.081518 4.472206
1.533706 -4.758965 -3.992015
1.375880 4.806969 4.103807
4.992732 0.269489 -0.064998
-3.910732 -3.115473 0.763218
3.685536 -3.378879 0.640910
-3.252063 3.797906 4.280223
0.378618 4.985644 0.445510
-4.331116 2.498286 0.114948
2.692600 -4.213064 2.906142
-4.996994 0.173346 0.737574
-3.853308 -3.186223 -0.139284
4.873641 1.116970 -0.646396
-1.413834 4.795943 -1.237312
-1.133351 4.869858 -4.507659
-0.458483 4.978935 -2.829255
-3.972866 -3.035842 -0.874295
-4.684510 1.747959 -3.725050
0.991313 4.900745 0.900123
1.679086 -4.709636 -1.223461
1.918414 -4.617325 -2.915114
-2.187961 -4.495868 -3.418325
4.289756 -2.568656 -3.684527
4.610821 1.933992 -1.344930
0.783099 -4.938295 -0.459818
-2.754726 -4.172707 2.646943
-4.881385 -1.082627 3.267436
-1.465893 4.780288 1.678661
4.956093 -0.661167 4.208078
3.086182 -3.933889 -1.284770
3.496042 -3.574590 0.360839
4.844727 1.236374 -2.796278
3.188217 3.851659 1.545474
4.972179 -0.526720 -0.134140
4.445027 -2.289484 4.666084
3.442882 3.625819 0.488524
2.866118 4.096995 -4.345351
-4.899538 0.997259 1.141588
-3.240653 3.807646 0.362637
-3.663073 3.403219 -2.987973
-3.747694 -3.309802 3.032506
4.999188 -0.090099 2.059712
-2.050994 -4.559981 -3.377504
2.201143 -4.489429 -2.849245
-4.337220 2.487674 0.316523
-3.493907 -3.576676 0.357820
4.097761 2.865022 -4.754133
4.307937 -2.538046 2.664220
0.766090 4.940962 4.175867
3.170697 -3.866094 3.466572
-4.005343 -2.992863 -4.650472
-4.695456 -1.718341 -2.036559
-4.996494 -0.187198 3.571323
4.353354 2.459331 0.637543
2.659665 -4.233932 -0.829791
-2.391402 -4.391036 -2.267447
4.666303 1.795999 3.478725
-1.981008 4.590818 4.483041
3.154296 3.879486 -1.578067
-4.978481 0.463387 -3.035352
-3.021360 3.983891 -3.812861
-4.982563 0.417209 1.204692
-4.998059 -0.139305 2.077505
-4.170232 2.758471 0.383599
-0.853949 -4.926537 2.715131
-4.834857 1.274426 -2.764332
4.881016 1.084291 -1.674478
-0.383985 -4.985234 3.472526
-4.977414 -0.474714 2.513847
-1.612387 -4.732886 -4.763039
-4.562655 2.045037 -3.700928
4.246974 2.638791 0.621863
-3.868808 -3.167384 1.779083
-3.647492 -3.419912 -1.310817
3.255391 3.795053 -1.502562
1.513289 -4.765496 -0.041109
4.776428 1.478423 -2.879782
-1.741248 4.687009 -2.098440
4.636281 1.872137 0.184815
4.926301 0.855309 2.575793
0.734541 -4.945751 0.292705
3.737215 -3.321630 -1.484369
-1.865739 4.638860 3.782322
-4.985363 -0.382297 2.867635
4.335966 -2.489860 4.700057
3.063819 3.951331 3.716046
-3.493506 3.577068 -3.029699
4.946840 0.727168 -2.777199
-4.729516 -1.622243 -2.769313
4.804134 -1.385746 -1.603953
4.548613 -2.076084 4.835564
-4.285508 2.575736 0.638709
0.340286 4.988407 -1.904821
-4.725588 -1.633651 -1.324843
3.902899 3.125280 1.115181
2.193610 -4.493114 -2.543109
-4.939955 -0.772560 -4.009784
1.629461 -4.727035 -0.683999
-2.858189 4.102531 -4.090270
-0.677284 4.953916 -0.335441
-1.768252 4.676888 3.481661
2.365102 4.405258 -2.793999
0.737771 4.945270 -0.001109
-4.244457 -2.642837 -4.791952
-4.877940 1.098043 -0.942516
-3.463345 3.606278 0.443993
4.943932 -0.746681 1.745865
3.499512 3.571192 -2.956311
-3.638804 3.429155 -0.905252
2.232489 -4.473924 0.133729
4.531785 -2.112564 -1.750911
3.292141 3.763217 -4.440797
2.474518 4.344739 1.354793
-1.130723 4.870469 -2.459500
3.135824 3.894433 -0.033131
-0.824996 -4.931468 -2.585267
2.448067 4.359698 2.566827
-3.906310 3.121017 0.315604
-4.699517 1.707203 -1.699656
-1.757549 4.680921 4.453344
1.368944 -4.808949 -4.299990
3.145190 3.886873 -0.267011
-4.048103 -2.934768 4.071760
-4.752223 1.554470 -1.359458
1.393150 4.801993 -3.174908
-0.942407 4.910384 -3.156306
-1.348371 -4.814758 -4.560148
-2.193239 4.493295 -4.484177
-2.994122 -4.004402 -3.329806
-0.164243 4.997302 -2.702043
3.433397 -3.634802 1.155376
-4.122789 2.828888 1.232784
1.542172 -4.756228 -1.315071
-3.851940 3.187877 2.861076
3.061588 3.953060 -0.183702
4.649051 -1.840196 -4.863474
4.540828 -2.093055 -3.696607
-3.704430 -3.358154 2.077695
4.739683 -1.592295 -3.890343
0.711907 -4.949059 2.141087
-2.350705 -4.412957 -1.557997
4.697319 1.713239 -4.503412
4.792024 -1.427064 -0.707673
-4.551819 2.069045 0.815843
-2.061950 4.555037 -2.020775
2.161294 -4.508748 -1.323314
-0.600285 4.963835 -4.205851
2.011710 4.577447 -2.064612
-2.961566 4.028539 0.736646
2.053371 -4.558911 0.514031
2.696190 4.210767 1.073725
4.869405 -1.135294 -0.516387
3.216378 3.828174 2.119062
-0.654782 4.956941 1.711379
3.313830 3.744133 -1.595544
-4.438248 -2.302597 -3.606242
3.501139 -3.569597 -0.294261
-0.006032 4.999996 -1.534079
-4.154627 -2.781920 0.307126
4.449151 2.281458 1.743004
-4.186139 2.734272 -3.003176
0.300714 4.990949 2.407875
1.044863 4.889608 0.979710
-4.978218 0.466208 4.033829
4.572364 -2.023237 2.476468
-0.309801 4.990393 -3.981093
3.012966 -3.990243 -0.536692
4.390707 2.392007 0.067610
4.937560 0.787717 4.574153
1.726226 4.692563 -4.562398
3.042093 -3.968081 -3.410391
1.165554 -4.862251 -0.692936
-0.776733 4.939300 4.777304
4.670685 -1.784573 -2.289136
-3.793734 3.256929 3.806704
-0.587453 4.965370 -0.548157
1.683300 -4.708131 -0.643645
0.034028 -4.999884 3.755599
-2.449673 -4.358796 1.590248
-2.799433 -4.142846 -1.756036
-1.753899 -4.682290 -0.202234
4.362941 2.442282 -3.004178
0.595029 4.964468 3.967539
-0.902449 -4.917884 -2.743246
2.734657 4.185887 -4.301157
-0.825122 4.931447 4.094459
-4.628959 1.890168 -0.303837
4.646263 1.847226 -3.079187
-4.490426 2.199108 3.482985
-4.955828 0.663150 3.868570
4.786248 1.446317 1.884518
4.563060 2.044133 -0.794693
1.555381 -4.751925 -0.792991
1.007546 4.897433 -0.107407
2.698531 4.209267 4.270352
-4.526058 2.124806 -2.672957
-2.376465 4.399138 -2.422057
0.523969 -4.972470 -3.313576
1.646663 4.721070 2.429565
0.076034 4.999422 -4.978690
-4.694524 1.720886 4.345014
4.999010 -0.099483 -0.296177
-3.905088 3.122545 -2.867662
4.981679 -0.427634 3.455419
-2.595701 -4.273445 4.979708
3.020476 3.984561 0.343569
-1.910759 4.620498 -0.459794
-3.541040 3.530019 -0.786085
-4.889400 1.045835 -2.178063
2.320370 4.428982 2.341809
1.528667 -4.760586 0.378090
1.262164 -4.838072 4.435552
-1.462006 -4.781479 0.927983
-1.989987 4.586933 -3.832866
3.368182 3.695315 -1.919083
-2.149952 -4.514167 -2.810650
1.894591 -4.627151 -3.754093
-4.870268 1.131587 3.580273
3.759502 -3.296383 -1.403486
-4.839881 -1.255208 -2.842044
4.916796 -0.908359 1.481452
-4.902108 -0.984551 -3.218025
-4.949344 -0.709924 -0.383714
1.318089 4.823136 -1.129698
1.921001 4.616249 1.578164
4.937998 0.784966 -4.096001
-4.980055 -0.446154 3.520917
1.961866 4.599031 -1.425958
-4.985015 0.386810 -3.826224
2.970197 -4.022180 2.880897
-1.730622 4.690943 -1.448232
2.806867 4.137813 2.085315
4.999395 -0.077781 4.653959
3.118986 -3.907931 2.563269
0.340586 -4.988387 4.954069
-1.730289 -4.691066 1.466013
-1.441574 -4.787678 0.131996
-0.736513 4.945457 -1.048388
-0.373971 -4.985995 2.527640
1.183381 -4.857943 -1.749085
4.882599 -1.077140 -0.104849
3.976612 -3.030933 0.288259
2.625717 4.255069 -2.242815
1.610861 4.733405 3.697759
3.235061 -3.812398 -1.466050
2.944834 -4.040786 1.175553
2.251859 -4.464205 -3.619170
-4.883588 -1.072644 3.976386
-2.022889 4.572518 1.046931
4.225036 -2.673774 3.154381
0.278355 4.992246 4.884696
-4.139878 2.803821 -2.688640
-3.754189 3.302433 1.342294
-3.794234 -3.256346 1.856697
1.803625 4.663361 -0.015673
-0.888199 -4.920478 1.486647
3.657694 3.408999 -1.914121
-0.583956 -4.965782 -0.802746
4.766455 -1.510268 -4.625624
-0.455606 -4.979199 -3.247559
4.090961 -2.874724 -3.607158
-2.306810 4.436060 -4.761328
4.511518 -2.155507 1.310797
-1.530873 -4.759877 -2.980394
4.628228 -1.891959 1.204060
4.294787 2.560236 2.682712
1.223004 -4.848119 -3.086198
-4.123025 2.828545 0.321742
-4.981714 -0.427227 -2.535790
0.639437 4.958943 -3.908014
-2.556786 -4.296842 -0.178576
1.306862 -4.826190 -3.989118
-4.999990 0.010133 -4.731123
4.129354 2.819297 -1.888990
-3.313066 -3.744809 2.427260
0.126832 4.998391 -3.095866
-3.030763 3.976742 -3.520134
-4.838226 -1.261573 1.060096
3.559168 -3.511740 1.392495
2.001081 -4.582104 3.571995
-3.373002 3.690916 1.012952
-2.862887 4.099254 4.348996
2.991549 4.006324 -1.668097
-4.059289 2.919275 3.505932
-1.858923 4.641595 3.708866
-4.775444 1.481597 4.197919
3.426295 3.641497 -1.134028
-1.102004 4.877047 2.897315
-3.809673 -3.238270 -1.035096
-1.976610 -4.592713 1.227202
4.311251 2.532412 -4.658427
2.362848 -4.406467 2.444127
4.429230 2.319897 2.288481
-0.270864 -4.992658 3.448407
4.953184 0.682617 -2.851854
1.319009 4.822885 -3.195008
-2.937785 -4.045914 -2.881183
4.959161 -0.637751 -0.357061
-4.781968 -1.460404 3.448835
-0.004272 -4.999998 -4.971423
4.726032 -1.632366 -2.359661
4.981876 0.425333 2.043437
-4.907350 -0.958082 4.565835
-2.565687 -4.291532 -3.833333
-3.646811 -3.420639 3.696067
4.991056 -0.298930 -3.526513
2.993176 -4.005109 3.206647
-0.664551 4.955640 4.676684
-2.644833 -4.243213 4.044453
4.948149 0.718209 -2.616812
4.943968 -0.746448 0.115618
-4.976623 0.482928 0.140053
0.181165 -4.996717 -2.697882
-0.890016 -4.920150 -2.720871
-1.054972 4.887436 3.767636
-3.777562 -3.275672 -1.992139
3.720013 -3.340883 4.480980
-3.406566 -3.659960 -0.724281
4.632876 -1.880548 0.449989
4.976696 -0.482179 2.677948
2.852840 4.106252 0.928275
3.760412 3.295345 1.637533
-2.692767 4.212957 -4.824029
-1.415998 -4.795305 -3.073692
-4.562910 -2.044468 -0.809516
-1.706346 -4.699828 0.849975
1.905115 4.622828 -3.298408
3.360952 -3.701892 -1.787712
1.195515 -4.854971 0.478489
-1.825415 -4.654875 -0.808601
0.019386 4.999962 -0.802909
-4.734987 1.606207 1.916525
0.683178 -4.953107 -1.126290
-4.599762 -1.960149 0.085267
-2.678618 -4.221967 1.510157
3.012010 -3.990964 -4.507026
4.894893 -1.019813 -2.495845
-0.638545 -4.959058 -4.733455
-4.134518 -2.811718 3.836438
3.239528 -3.808603 -0.028391
-1.187490 -4.856940 -2.395906
4.951507 0.694679 1.553352
-3.112130 3.913393 -3.078890
2.763940 4.166609 -3.112299
-0.618429 -4.961607 3.534400
4.930567 0.830367 -1.405466
2.995798 -4.003148 0.886403
4.365355 2.437966 2.336514
4.872529 1.121810 -4.113010
4.336235 -2.489391 -4.198859
4.736283 -1.602380 -4.456541
-2.608577 -4.265598 1.492921
-4.767555 -1.506791 0.058643
-4.523872 2.129455 1.614338
4.745648 1.574428 -4.250278
-3.877399 -3.156862 -0.810686
-4.552886 2.066695 -0.080519
2.622535 -4.257031 0.234328
3.474259 -3.595765 4.067229
1.386798 -4.803831 3.484470
-2.972858 4.020213 1.359498
-0.032657 -4.999893 -3.939390
-4.956286 0.659719 -4.468558
2.534786 4.309856 -2.016566
1.623833 4.728971 0.877894
-3.304546 -3.752330 1.084633
-2.468171 4.348348 4.528658
-3.758569 3.297448 0.699494
0.744847 -4.944209 -2.898127
4.904934 0.970372 4.062895
-4.702278 -1.699583 -1.851528
3.083543 3.935958 4.283297
4.859689 1.176189 -3.698209
-2.299552 -4.439827 -2.375029
-3.601475 3.468339 1.197867
-4.111052 -2.845918 4.848206
-4.999914 0.029373 2.593596
-0.901220 4.918110 0.234517
3.085175 -3.934678 -2.818570
4.425489 -2.327026 -2.644694
4.786285 -1.446192 -2.324399
1.176313 -4.859659 -2.876768
1.183997 -4.857793 -2.241372
-4.405007 -2.365569 1.778722
-2.773046 4.160555 -1.834097
3.286035 -3.768551 4.929148
-4.954925 -0.669862 0.393837
-3.167136 3.869011 4.559077
-4.455248 -2.269530 4.274652
-4.758076 -1.536462 -1.899501
-0.545106 -4.970197 2.553738
4.621369 1.908652 0.778899
-4.413801 -2.349119 -2.302290
4.424276 -2.329330 -0.149257
4.601634 1.955752 3.757342
-3.910782 -3.115410 -4.904976
4.154615 2.781937 -2.955375
4.839894 1.255158 -1.305497
2.195413 -4.492233 -0.260914
1.900907 4.624560 2.958560
-4.985139 -0.385214 -2.667763
4.956353 -0.659219 -0.052752
-4.875527 -1.108708 -4.353044
4.057411 -2.921885 1.344595
-1.908940 -4.621250 -4.658921
-4.760407 1.529223 -4.973203
2.616931 4.260478 1.112038
-2.018243 -4.574570 -0.540849
4.754668 1.546975 4.521973
-4.926435 0.854537 2.795405
-4.066987 2.908543 2.526492
-4.998190 -0.134508 -0.781307
-1.177739 4.859314 -1.282879
-2.036463 -4.566489 -2.124531
3.310598 3.746991 -1.231190
0.453513 -4.979390 -4.432336
1.390651 -4.802717 -2.070069
-0.039881 4.999841 -4.050623
4.993839 -0.248134 1.121695
0.276993 4.992322 -3.733505
-4.950418 0.702399 0.462201
-4.039242 2.946951 2.858552
-2.667944 4.228720 -1.128743
3.379536 3.684934 -0.606055
-4.725557 -1.633743 -0.982122
4.925246 0.861367 0.997497
0.793832 4.936581 2.929165
-1.116943 -4.873647 4.475986
-0.583934 4.965785 -0.490972
1.702066 4.701380 2.119124
-0.892715 -4.919660 -3.375187
4.966096 0.581284 -2.789650
-4.847206 -1.226619 -4.328612
2.772000 -4.161252 3.315038
3.241285 -3.807108 2.330829
4.617300 1.918474 -0.592412
-0.650340 4.957525 4.756498
-4.842921 1.243430 0.684481
2.749696 4.176024 1.459579
-0.061532 -4.999621 4.600118
0.012384 4.999985 -4.153027
-0.866638 -4.924321 0.843722
-4.792667 -1.424900 3.483569
-3.055597 -3.957692 2.745749
0.010368 4.999989 3.151758
4.630343 1.886775 -4.618344
1.472244 4.778336 3.491952
-2.492236 -4.334600 2.448819
-4.117706 -2.836283 1.141295
-3.503805 -3.566981 4.863931
4.988998 0.331510 4.329084
-2.190679 4.494544 -0.784639
4.762385 -1.523054 -2.864789
-3.530990 -3.540072 -3.994058
-4.990319 0.310992 2.908808
3.867465 3.169024 2.643213
-4.995984 -0.200363 -2.382697
3.150572 -3.882512 1.260150
-4.916375 -0.910636 4.178965
-2.009300 -4.578506 -4.943298
4.466570 -2.247166 -2.925670
-2.266631 4.456724 -2.059204
-1.611979 -4.733025 -0.878719
-0.628958 -4.960283 -0.759959
1.390422 4.802783 3.686094
2.607937 4.265989 4.792263
4.943250 -0.751184 -1.364262
0.544978 4.970211 1.327220
4.682032 -1.754587 -0.181886
-1.242755 4.843094 -4.254228
2.379850 4.397308 -2.908166
3.154841 3.879044 -4.020474
-1.851392 4.644604 4.970555
-4.661327 1.808877 -0.303947
4.958882 0.639911 2.564775
0.293343 -4.991388 0.450142
4.962530 0.610983 -2.011534
2.329823 -4.424017 3.112613
0.603311 -4.963468 -2.201728
3.376423 3.687786 -4.878095
3.453788 3.615432 -4.676398
2.086596 -4.543800 -4.507786
3.084961 3.934846 -2.526187
4.834997 1.273895 -3.157694
3.716568 -3.344716 -0.235352
-3.827230 -3.217501 -1.411437
0.333795 -4.988846 -1.409148
4.972643 -0.522323 -3.693888
-4.858341 -1.181747 4.636947
-3.201465 -3.840654 2.544234
-2.864209 4.098329 -3.527792
-4.999988 -0.011136 3.604872
2.862295 -4.099667 -2.279165
4.755562 1.544226 -3.014311
3.626032 3.442658 -3.501366
4.162951 2.769447 2.535268
-4.954116 0.675818 0.952705
0.557441 4.968829 -2.212015
4.700498 -1.704498 -4.352805
-3.438413 -3.630057 -3.367959
-1.669259 -4.713128 3.011155
3.243336 3.805361 3.390629
2.453712 4.356523 4.893351
1.060593 -4.886220 1.938319
-1.156889 -4.864320 0.890715
3.801945 3.247339 3.751023
-4.092262 -2.872872 1.950733
-4.794969 1.417136 -2.965842
-2.593847 4.274571 4.529088
3.881956 -3.151256 1.146005
-3.213935 -3.830225 1.529000
4.445342 -2.288871 4.276010
3.073490 3.943813 0.914449
-3.106493 -3.917869 -2.527766
3.061911 3.952809 -2.288306
0.225705 4.994903 3.608484
1.690486 -4.705556 -1.993090
-3.723404 -3.337104 2.488974
-1.144699 4.867203 -3.141469
-1.821625 4.656360 0.191162
4.995842 -0.203870 1.205669
2.746634 -4.178038 -2.934316
-2.050219 -4.560329 -3.912644
